# .PCD v0.7 - Point Cloud Data file format
VERSION 0.7
FIELDS x y z intensity
SIZE 4 4 4 4
TYPE F F F F
COUNT 1 1 1 1
WIDTH 1385
HEIGHT 1
VIEWPOINT 0 0 0 1 0 0 0
POINTS 1385
DATA ascii
4.6900001 5.974 -1.699 0.23999999
4.665 5.961 -1.693 0.2
4.6440001 5.973 -1.692 0.27000001
4.6059999 5.9629998 -1.684 0.25
4.5689998 5.954 -1.677 0.25999999
4.5409999 5.9559999 -1.673 0.27000001
4.507 5.9499998 -1.6670001 0.28999999
4.4829998 5.9569998 -1.665 0.28999999
4.4489999 5.9510002 -1.659 0.28999999
4.4330001 5.9499998 -1.6569999 0.28999999
4.4039998 5.9499998 -1.652 0.31
4.3649998 5.9349999 -1.6440001 0.28999999
4.3410001 5.9429998 -1.642 0.25999999
4.3109999 5.941 -1.638 0
4.2880001 5.948 -1.636 0
4.2909999 5.9910002 -1.645 0
4.5510001 6.3720002 -1.755 0.0099999998
4.677 6.592 -1.816 0.11
4.6539998 6.6040001 -1.8150001 0.22
4.625 6.6059999 -1.811 0.25
4.6240001 6.6490002 -1.819 0.25
4.6020002 6.6620002 -1.819 0.27000001
4.559 6.6440001 -1.8099999 0.33000001
4.5580001 6.6659999 -1.814 0.27000001
4.5560002 6.7069998 -1.822 0.20999999
4.5300002 6.7129998 -1.819 0.25999999
4.5170002 6.7410002 -1.823 0.34999999
4.507 6.7709999 -1.8279999 0.31
4.487 6.7870002 -1.8279999 0.28999999
4.4549999 6.7839999 -1.824 0.31999999
4.4439998 6.7909999 -1.824 0.28
4.4029999 6.776 -1.8150001 0.20999999
4.4109998 6.8340001 -1.8279999 0.30000001
4.3839998 6.8400002 -1.825 0.23
4.382 6.8839998 -1.834 0.23
4.3649998 6.9050002 -1.836 0.31999999
4.3390002 6.9120002 -1.834 0.28
4.3150001 6.9219999 -1.8329999 0.25
4.29 6.9060001 -1.827 0.23
4.2750001 6.9310002 -1.83 0.25
4.257 6.9489999 -1.832 0.43000001
4.2199998 6.9380002 -1.825 0.30000001
4.2080002 6.967 -1.829 0.28
4.171 6.9559999 -1.822 0.25
4.165 6.9949999 -1.83 0.28999999
4.138 6.9749999 -1.822 0.2
4.119 6.993 -1.824 0.27000001
4.0809999 6.9790001 -1.816 0.25
4.0539999 6.9840002 -1.814 0.25
4.04 7.0100002 -1.818 0.27000001
4.0190001 7.0240002 -1.818 0.25
3.9820001 7.0100002 -1.811 0.20999999
3.9949999 7.0580001 -1.822 0.27000001
3.977 7.079 -1.825 0.23999999
3.967 7.1139998 -1.831 0.27000001
3.9549999 7.1430001 -1.835 0.25
3.9260001 7.145 -1.832 0.31999999
3.9030001 7.1560001 -1.832 0.25
3.882 7.1719999 -1.8329999 0.25
3.8510001 7.1399999 -1.823 0.18000001
3.8499999 7.1929998 -1.834 0.30000001
3.826 7.2020001 -1.8329999 0.20999999
3.7839999 7.178 -1.823 0.18000001
3.773 7.2119999 -1.829 0.28999999
3.7479999 7.2189999 -1.8279999 0.22
3.757 7.2909999 -1.844 0.11
3.7260001 7.2600002 -1.834 0.20999999
3.7279999 7.3210001 -1.847 0.23999999
3.701 7.3239999 -1.845 0.30000001
3.668 7.316 -1.84 0.23999999
3.6370001 7.3099999 -1.835 0.22
3.6159999 7.3270001 -1.837 0.31999999
3.5639999 7.2789998 -1.821 0.23
3.573 7.355 -1.8380001 0.31999999
3.5420001 7.3200002 -1.827 0.25999999
3.4879999 7.2680001 -1.811 0.25
3.4489999 7.2459998 -1.802 0.18000001
3.4260001 7.256 -1.802 0.28
3.398 7.2550001 -1.798 0.25
3.378 7.2729998 -1.8 0.25999999
3.3440001 7.2579999 -1.794 0.20999999
3.346 7.2919998 -1.801 0.25
3.3410001 7.3410001 -1.811 0.22
3.312 7.3390002 -1.808 0.25
3.2880001 7.348 -1.808 0.25
3.273 7.3759999 -1.812 0.23
3.2520001 7.3920002 -1.814 0.25999999
3.2260001 7.3959999 -1.812 0.23999999
3.2149999 7.402 -1.812 0.27000001
3.191 7.4099998 -1.812 0.23
3.175 7.4380002 -1.817 0.31999999
3.151 7.4460001 -1.816 0.27000001
3.112 7.4180002 -1.806 0.22
3.089 7.4299998 -1.807 0.27000001
3.062 7.4299998 -1.804 0.23
3.036 7.401 -1.796 0.2
3.017 7.4190001 -1.798 0.23999999
2.99 7.4219999 -1.796 0.19
2.9630001 7.4219999 -1.794 0.22
2.9319999 7.4109998 -1.789 0.18000001
2.9130001 7.4310002 -1.791 0.23
2.8829999 7.4219999 -1.7869999 0.19
2.8559999 7.4219999 -1.784 0.25
2.8310001 7.3940001 -1.776 0.18000001
2.8080001 7.401 -1.776 0.23
2.7709999 7.375 -1.767 0.23
2.743 7.3709998 -1.763 0.18000001
2.743 7.4419999 -1.779 0.27000001
2.7079999 7.4200001 -1.771 0.23
2.694 7.4520001 -1.777 0.27000001
2.6789999 7.4489999 -1.776 0.28
2.655 7.4549999 -1.775 0.27000001
2.6300001 7.4580002 -1.774 0.27000001
2.6010001 7.4499998 -1.77 0.27000001
2.576 7.454 -1.7690001 0.27000001
2.552 7.4619999 -1.7690001 0.28
2.5209999 7.448 -1.763 0.28999999
2.507 7.4450002 -1.761 0.28999999
2.4809999 7.4450002 -1.7589999 0.28999999
2.4549999 7.4439998 -1.757 0.28
2.427 7.4380002 -1.7539999 0.28999999
2.4059999 7.4530001 -1.756 0.28999999
2.378 7.4460001 -1.752 0.27000001
2.352 7.4460001 -1.75 0.27000001
2.3380001 7.441 -1.748 0.27000001
2.3110001 7.4390001 -1.745 0.28
2.2880001 7.4460001 -1.745 0.27000001
2.2620001 7.4439998 -1.743 0.28
2.2360001 7.4429998 -1.7410001 0.28
2.211 7.447 -1.74 0.27000001
2.1860001 7.448 -1.739 0.28999999
2.1589999 7.4419999 -1.735 0.28999999
2.1489999 7.4510002 -1.737 0.27000001
2.125 7.454 -1.7359999 0.28
2.1010001 7.4580002 -1.735 0.28
2.072 7.448 -1.7309999 0.28
2.046 7.4450002 -1.729 0.30000001
2.0220001 7.448 -1.728 0.27000001
1.997 7.447 -1.726 0.27000001
1.9859999 7.4549999 -1.728 0.28999999
1.96 7.4499998 -1.725 0.28999999
1.933 7.441 -1.721 0.30000001
1.909 7.4460001 -1.721 0.28999999
1.882 7.4380002 -1.717 0.28
1.858 7.4419999 -1.717 0.28999999
1.836 7.4559999 -1.719 0.25999999
1.821 7.4439998 -1.715 0.27000001
1.794 7.4359999 -1.712 0.28
1.772 7.447 -1.7130001 0.27000001
1.744 7.4299998 -1.707 0.27000001
1.719 7.4299998 -1.706 0.28999999
1.698 7.447 -1.709 0.28999999
1.671 7.4349999 -1.705 0.28999999
1.6569999 7.4260001 -1.702 0.30000001
1.6339999 7.4330001 -1.702 0.30000001
1.608 7.427 -1.7 0.28999999
1.584 7.4299998 -1.699 0.30000001
1.559 7.427 -1.697 0.30000001
1.535 7.4299998 -1.697 0.28999999
1.511 7.4289999 -1.6950001 0.28999999
1.487 7.4299998 -1.694 0.30000001
1.474 7.4250002 -1.693 0.30000001
1.448 7.4180002 -1.6900001 0.30000001
1.426 7.4320002 -1.692 0.28999999
1.399 7.4169998 -1.687 0.28999999
1.378 7.4289999 -1.689 0.28999999
1.351 7.4180002 -1.686 0.30000001
1.327 7.4169998 -1.684 0.28999999
1.314 7.4130001 -1.683 0.28999999
1.291 7.4169998 -1.683 0.28999999
1.266 7.414 -1.681 0.28999999
1.243 7.4180002 -1.681 0.28999999
1.219 7.4159999 -1.6799999 0.28999999
1.1950001 7.4159999 -1.679 0.27000001
1.169 7.402 -1.674 0.25999999
1.16 7.4190001 -1.678 0.25
1.1339999 7.4109998 -1.675 0.12
1.1109999 7.4109998 -1.674 0.20999999
1.0880001 7.4180002 -1.675 0.20999999
1.063 7.4099998 -1.673 0.1
1.0420001 7.4310002 -1.677 0.090000004
1.018 7.428 -1.675 0.039999999
1.011 7.461 -1.683 0
0.98500001 7.4499998 -1.6799999 0
0.96399999 7.473 -1.684 0
0.94400001 7.4990001 -1.6900001 0
0.92500001 7.5380001 -1.699 0
0.91299999 7.638 -1.722 0
0.89499998 7.6869998 -1.733 0
0.87300003 7.7069998 -1.737 0
0.86699998 7.7680001 -1.752 0
0.85000002 7.8369999 -1.768 0
0.83200002 7.901 -1.783 0.1
0.81400001 7.96 -1.796 0.039999999
0.78799999 7.961 -1.796 0.11
0.764 7.9689999 -1.7970001 0.050000001
0.74000001 7.9790001 -1.799 0.15000001
0.72899997 8.0030003 -1.804 0.11
0.704 8.0039997 -1.804 0.18000001
0.67699999 7.9840002 -1.799 0.13
0.65399998 8.0080004 -1.804 0.30000001
0.62800002 8.0080004 -1.804 0.23999999
0.60299999 8.0039997 -1.802 0.23
0.57800001 8.0080004 -1.803 0.28
0.56400001 7.9889998 -1.798 0.25
0.53899997 8.0010004 -1.8 0.30000001
0.514 8.0039997 -1.801 0.31
0.48899999 8 -1.799 0.28999999
0.463 7.9980001 -1.798 0.34
0.43900001 8.007 -1.8 0.31999999
0.41299999 7.9970002 -1.7970001 0.28
0.38800001 8 -1.798 0.31999999
0.375 7.9949999 -1.7970001 0.31999999
0.34999999 8 -1.7970001 0.34
0.32499999 8.0030003 -1.798 0.34
0.30000001 7.9980001 -1.7970001 0.34999999
0.27399999 7.9829998 -1.793 0.25999999
0.249 7.9990001 -1.7970001 0.33000001
0.22400001 7.9920001 -1.795 0.31999999
0.212 8.0039997 -1.7970001 0.37
0.186 7.993 -1.795 0.34999999
0.161 7.994 -1.795 0.33000001
0.13600001 7.9959998 -1.795 0.36000001
0.111 7.9910002 -1.794 0.34999999
0.086000003 7.993 -1.794 0.33000001
0.061000001 7.993 -1.794 0.38999999
0.048 7.9990001 -1.796 0.37
0.023 7.9899998 -1.793 0.33000001
-0.0020000001 7.994 -1.794 0.38999999
-0.027000001 8.0050001 -1.7970001 0.36000001
-0.052000001 7.9920001 -1.794 0.36000001
-0.077 7.987 -1.793 0.37
-0.103 8.007 -1.7970001 0.37
-0.115 7.9949999 -1.795 0.37
-0.14 7.9920001 -1.794 0.33000001
-0.16599999 8.007 -1.798 0.38999999
-0.19 7.9889998 -1.794 0.38
-0.215 7.9850001 -1.793 0.37
-0.241 8 -1.7970001 0.36000001
-0.266 7.987 -1.794 0.34
-0.278 7.987 -1.794 0.34
-0.30399999 8.007 -1.799 0.33000001
-0.329 7.9990001 -1.7970001 0.38
-0.354 7.9860001 -1.794 0.30000001
-0.38 8.0059996 -1.799 0.37
-0.40400001 7.9889998 -1.796 0.30000001
-0.42899999 7.9899998 -1.796 0.31999999
-0.45500001 8 -1.799 0.31999999
-0.46700001 7.9899998 -1.7970001 0.36000001
-0.49200001 7.994 -1.798 0.31999999
-0.51800001 8.0059996 -1.801 0.31999999
-0.542 7.9790001 -1.795 0.31
-0.56800002 7.9889998 -1.798 0.28999999
-0.59299999 7.9910002 -1.799 0.36000001
-0.61699998 7.9780002 -1.796 0.31
-0.63 7.9840002 -1.798 0.30000001
-0.65700001 7.9980001 -1.802 0.31999999
-0.68099999 7.9860001 -1.799 0.33000001
-0.70599997 7.9860001 -1.8 0.30000001
-0.73199999 7.987 -1.801 0.31999999
-0.75599998 7.9749999 -1.798 0.31999999
-0.78200001 7.9829998 -1.801 0.34
-0.796 7.9970002 -1.804 0.36000001
-0.81999999 7.9850001 -1.802 0.36000001
-0.84500003 7.98 -1.802 0.33000001
-0.87199998 7.993 -1.8049999 0.34
-0.89499998 7.9770002 -1.802 0.36000001
-0.92000002 7.974 -1.802 0.38
-0.94800001 7.9899998 -1.807 0.33000001
-0.972 7.9790001 -1.8049999 0.41
-0.98400003 7.9720001 -1.804 0.31
-1.011 7.9840002 -1.807 0.31999999
-1.033 7.9640002 -1.803 0.33000001
-1.059 7.9619999 -1.804 0.31999999
-1.089 7.9959998 -1.812 0.37
-1.109 7.9559999 -1.804 0.31
-1.136 7.9679999 -1.807 0.31999999
-1.151 7.9829998 -1.811 0.34999999
-1.176 7.9809999 -1.812 0.34
-1.201 7.9759998 -1.811 0.34999999
-1.227 7.9759998 -1.812 0.33000001
-1.253 7.98 -1.814 0.31999999
-1.279 7.9809999 -1.816 0.31999999
-1.307 7.9959998 -1.8200001 0.31
-1.3150001 7.9689999 -1.814 0.19
-1.345 7.9920001 -1.821 0.28999999
-1.3710001 7.9920001 -1.822 0.20999999
-1.395 7.9840002 -1.821 0.12
-1.423 7.993 -1.824 0.16
-1.448 7.9899998 -1.825 0.22
-1.471 7.9720001 -1.821 0.1
-1.482 7.9619999 -1.819 0.079999998
-1.502 7.9299998 -1.813 0.039999999
-1.527 7.9260001 -1.813 0
-1.541 7.8660002 -1.799 0
-1.556 7.8109999 -1.7869999 0
-1.58 7.8060002 -1.7869999 0
-1.595 7.7519999 -1.775 0
-1.6059999 7.6820002 -1.7589999 0
-1.605 7.618 -1.744 0
-1.615 7.5450001 -1.728 0
-1.626 7.4809999 -1.7130001 0
-1.642 7.4429998 -1.705 0.029999999
-1.6619999 7.4229999 -1.701 0.029999999
-1.6849999 7.414 -1.7 0.07
-1.7079999 7.4060001 -1.7 0.16
-1.722 7.415 -1.7029999 0.16
-1.7460001 7.4120002 -1.7029999 0.090000004
-1.766 7.3930001 -1.7 0.18000001
-1.79 7.3930001 -1.701 0.22
-1.8099999 7.3740001 -1.698 0.19
-1.839 7.3909998 -1.704 0.23999999
-1.864 7.3909998 -1.705 0.23999999
-1.875 7.388 -1.705 0.25999999
-1.9 7.388 -1.707 0.27000001
-1.924 7.3850002 -1.707 0.27000001
-1.95 7.3909998 -1.71 0.27000001
-1.975 7.3899999 -1.712 0.28
-1.998 7.3839998 -1.712 0.28
-2.026 7.3940001 -1.716 0.27000001
-2.04 7.3990002 -1.7180001 0.27000001
-2.062 7.388 -1.717 0.28
-2.0899999 7.401 -1.721 0.28
-2.1129999 7.3920002 -1.721 0.28
-2.138 7.3930001 -1.723 0.28999999
-2.1630001 7.3899999 -1.724 0.28
-2.187 7.3870001 -1.725 0.28
-2.2130001 7.3889999 -1.727 0.28999999
-2.2260001 7.3909998 -1.728 0.28
-2.2490001 7.3839998 -1.728 0.30000001
-2.2750001 7.3870001 -1.7309999 0.27000001
-2.3050001 7.402 -1.7359999 0.27000001
-2.326 7.3850002 -1.734 0.30000001
-2.3529999 7.3889999 -1.737 0.28999999
-2.3770001 7.3870001 -1.738 0.28
-2.3929999 7.3940001 -1.7410001 0.28
-2.4159999 7.3889999 -1.742 0.28
-2.4430001 7.3920002 -1.744 0.27000001
-2.47 7.3959999 -1.747 0.27000001
-2.4979999 7.4029999 -1.751 0.27000001
-2.526 7.408 -1.7539999 0.25999999
-2.5450001 7.3889999 -1.751 0.27000001
-2.5599999 7.3920002 -1.753 0.27000001
-2.592 7.4099998 -1.76 0.27000001
-2.6159999 7.4029999 -1.76 0.28
-2.641 7.402 -1.762 0.28
-2.6689999 7.4050002 -1.765 0.27000001
-2.6900001 7.3909998 -1.763 0.27000001
-2.72 7.401 -1.768 0.27000001
-2.733 7.4000001 -1.7690001 0.25999999
-2.7590001 7.3990002 -1.771 0.27000001
-2.7820001 7.3920002 -1.771 0.28
-2.8169999 7.414 -1.779 0.25999999
-2.8380001 7.3979998 -1.777 0.27000001
-2.8670001 7.4039998 -1.781 0.27000001
-2.8929999 7.4039998 -1.784 0.27000001
-2.9159999 7.3930001 -1.783 0.25999999
-2.9330001 7.4029999 -1.7869999 0.25
-2.9619999 7.408 -1.791 0.25999999
-2.9849999 7.3979998 -1.791 0.25999999
-3.01 7.3930001 -1.791 0.25999999
-3.04 7.3990002 -1.796 0.25
-3.063 7.3899999 -1.796 0.25999999
-3.0940001 7.3979998 -1.8 0.27000001
-3.1140001 7.415 -1.806 0.27000001
-3.1359999 7.401 -1.8049999 0.25999999
-3.165 7.4039998 -1.808 0.27000001
-3.1949999 7.4099998 -1.812 0.28
-3.2190001 7.402 -1.813 0.27000001
-3.2479999 7.4039998 -1.816 0.25999999
-3.2750001 7.4050002 -1.819 0.25999999
-3.28 7.3829999 -1.8150001 0.27000001
-3.3099999 7.3889999 -1.819 0.27000001
-3.342 7.3979998 -1.824 0.27000001
-3.3670001 7.3909998 -1.825 0.27000001
-3.392 7.3839998 -1.826 0.25999999
-3.4289999 7.4029999 -1.834 0.27000001
-3.4389999 7.3639998 -1.826 0.2
-3.4690001 7.4000001 -1.837 0.27000001
-3.4920001 7.3870001 -1.837 0.23
-3.5179999 7.3829999 -1.839 0.2
-3.5439999 7.3769999 -1.84 0.23999999
-3.5699999 7.3709998 -1.841 0.19
-3.596 7.3670001 -1.8430001 0.23
-3.605 7.3260002 -1.835 0.19
-3.6359999 7.3319998 -1.84 0.23
-3.6340001 7.2979999 -1.832 0.19
-3.6670001 7.3060002 -1.8380001 0.25
-3.704 7.3239999 -1.846 0.18000001
-3.747 7.3509998 -1.8559999 0.25
-3.7809999 7.3610001 -1.862 0.23
-3.832 7.4029999 -1.876 0.25999999
-3.862 7.4050002 -1.88 0.27000001
-3.882 7.414 -1.8839999 0.28
-3.9159999 7.4229999 -1.89 0.25999999
-3.934 7.4000001 -1.887 0.23999999
-3.9660001 7.4050002 -1.892 0.28
-4.013 7.4369998 -1.904 0.34
-4.0359998 7.4219999 -1.903 0.30000001
-4.0370002 7.369 -1.892 0.28
-4.0510001 7.368 -1.8940001 0.23999999
-4.0689998 7.3449998 -1.891 0.23
-4.1129999 7.3709998 -1.901 0.38999999
-4.1269999 7.3410001 -1.897 0.19
-4.1529999 7.3330002 -1.898 0.28999999
-4.1700001 7.3099999 -1.895 0.23999999
-4.198 7.3049998 -1.898 0.28999999
-4.2080002 7.2950001 -1.897 0.27000001
-4.2030001 7.2350001 -1.8839999 0.25
-4.2150002 7.2030001 -1.8789999 0.31
-4.2179999 7.1560001 -1.869 0.25
-4.2519999 7.1609998 -1.874 0.28
-4.2729998 7.1459999 -1.874 0.25
-4.296 7.1339998 -1.874 0.2
-4.3210001 7.1240001 -1.875 0.25999999
-4.3379998 7.1269999 -1.878 0.23
-4.4039998 7.1849999 -1.898 0.28
-4.4369998 7.1880002 -1.903 0.28
-4.4569998 7.171 -1.902 0.2
-4.4829998 7.1609998 -1.903 0.25
-4.5229998 7.1750002 -1.911 0.2
-4.539 7.151 -1.908 0.27000001
-4.5440001 7.1339998 -1.906 0.27000001
-4.5630002 7.1149998 -1.904 0.33000001
-4.5819998 7.0960002 -1.903 0.25999999
-4.6490002 7.1500001 -1.9220001 0.37
-4.665 7.125 -1.92 0.30000001
-4.652 7.0570002 -1.904 0.27000001
-4.6810002 7.052 -1.9069999 0.23
-4.7199998 7.0630002 -1.915 0.34999999
-4.7410002 7.0710001 -1.919 0.31999999
-4.7779999 7.0780001 -1.925 0.34999999
-4.7969999 7.0580001 -1.924 0.25999999
-4.8169999 7.04 -1.923 0.28999999
-4.8309999 7.0120001 -1.919 0.34
-4.836 6.973 -1.9119999 0.30000001
-4.8400002 6.9320002 -1.905 0.30000001
-4.8299999 6.8940001 -1.896 0.30000001
-4.829 6.8470001 -1.887 0.23
-4.8610001 6.8460002 -1.891 0.30000001
-4.882 6.8309999 -1.891 0.25
-4.9029999 6.8140001 -1.89 0.25999999
-4.9289999 6.8049998 -1.892 0.27000001
-4.9439998 6.7810001 -1.89 0.25
-4.9619999 6.783 -1.893 0.22
-5.0310001 6.8330002 -1.9119999 0.31999999
-5.0450001 6.8060002 -1.909 0.31999999
-5.046 6.7639999 -1.901 0.27000001
-5.1079998 6.803 -1.9170001 0.28999999
-5.1370001 6.796 -1.92 0.28
-5.138 6.7529998 -1.9119999 0.25999999
-5.152 6.75 -1.914 0.28999999
-5.1669998 6.7259998 -1.911 0.25
-5.1880002 6.71 -1.911 0.40000001
-5.217 6.7030001 -1.914 0.33000001
-5.2090001 6.6490002 -1.903 0.33000001
-5.2550001 6.665 -1.913 0.30000001
-5.2919998 6.6680002 -1.919 0.28
-5.2649999 6.6129999 -1.904 0.22
-5.2979999 6.6110001 -1.909 0.37
-5.3150001 6.5900002 -1.908 0.23999999
-5.3449998 6.586 -1.911 0.31999999
-5.3600001 6.5609999 -1.909 0.23
-5.3959999 6.5640001 -1.915 0.050000001
-5.4029999 6.5300002 -1.91 0
-5.243 6.2950001 -1.842 0
-4.915 5.8790002 -1.715 0.14
-4.9419999 5.8740001 -1.7180001 0.2
-4.9580002 5.8559999 -1.717 0.23
-5.0029998 5.8709998 -1.727 0.25999999
-5.0209999 5.8559999 -1.727 0.28
-5.046 5.8470001 -1.729 0.28
-5.0910001 5.862 -1.739 0.31
-5.0999999 5.8540001 -1.739 0.31
-5.1339998 5.8559999 -1.745 0.30000001
-5.1750002 5.8660002 -1.753 0.28999999
-5.2020001 5.8600001 -1.756 0.28999999
-5.2470002 5.8730001 -1.766 0.25
-5.2820001 5.875 -1.772 0.20999999
-5.3109999 5.8699999 -1.776 0.27000001
-5.3299999 5.8730001 -1.779 0.25
-5.3660002 5.875 -1.785 0.2
-5.4050002 5.881 -1.793 0.27000001
-5.434 5.8759999 -1.7970001 0.25
-5.467 5.8740001 -1.802 0.2
-5.5 5.8730001 -1.807 0.25999999
-5.527 5.8639998 -1.8099999 0.23999999
-5.5609999 5.882 -1.818 0.20999999
-5.5689998 5.8530002 -1.8150001 0.23999999
-5.605 5.8540001 -1.821 0.22
-5.6500001 5.8649998 -1.83 0.19
-5.6859999 5.8649998 -1.836 0.27000001
-5.7069998 5.8499999 -1.837 0.23999999
-5.7399998 5.8470001 -1.842 0.2
-5.7779999 5.849 -1.849 0.25999999
-5.7880001 5.8410001 -1.849 0.19
-5.8309999 5.848 -1.858 0.25
-5.8439999 5.8239999 -1.8559999 0.23
-5.8870001 5.8299999 -1.864 0.25
-5.9359999 5.842 -1.874 0.23
-5.994 5.8629999 -1.888 0.31
-6.0219998 5.8530002 -1.891 0.25999999
-6.039 5.8509998 -1.8940001 0.36000001
-6.0479999 5.823 -1.891 0.31999999
-6.0840001 5.8210001 -1.896 0.37
-6.099 5.7989998 -1.895 0.31999999
-6.1069999 5.77 -1.892 0.28
-6.1139998 5.7399998 -1.888 0.25999999
-6.0879998 5.6799998 -1.874 0.15000001
-5.4990001 5.1110001 -1.678 0.2
-5.4000001 4.9860001 -1.64 0.23
-5.4039998 4.9590001 -1.636 0.30000001
-5.415 4.9380002 -1.635 0.31
-5.4310002 4.921 -1.635 0.31
-5.4619999 4.9180002 -1.64 0.31
-5.4650002 4.8889999 -1.636 0.31
-5.4749999 4.8829999 -1.637 0.28999999
-5.4949999 4.8699999 -1.638 0.30000001
-5.5120001 4.8540001 -1.638 0.31999999
-5.5370002 4.8449998 -1.642 0.31999999
-5.5679998 4.842 -1.647 0.34
-5.5819998 4.823 -1.646 0.34
-5.6160002 4.822 -1.652 0.34999999
-5.6399999 4.8270001 -1.658 0.30000001
-5.6739998 4.8260002 -1.664 0.37
-5.7069998 4.823 -1.669 0.31
-5.7399998 4.8200002 -1.675 0.34999999
-5.77 4.8150001 -1.6799999 0.34
-5.8060002 4.8140001 -1.686 0.34
-5.836 4.8080001 -1.691 0.28999999
-5.8740001 4.8239999 -1.7 0.34999999
-5.8959999 4.8119998 -1.702 0.28999999
-5.934 4.8119998 -1.709 0.34999999
-5.9660001 4.8060002 -1.714 0.34
-5.994 4.7989998 -1.719 0.31999999
-6.0380001 4.803 -1.728 0.31
-6.0700002 4.7969999 -1.733 0.31
-6.1020002 4.7909999 -1.738 0.30000001
-6.1370001 4.803 -1.7460001 0.30000001
-6.1659999 4.7950001 -1.75 0.33000001
-6.2090001 4.7969999 -1.7589999 0.33000001
-6.2329998 4.7849998 -1.762 0.30000001
-6.2550001 4.7709999 -1.7640001 0.28999999
-6.257 4.7410002 -1.76 0.23999999
-6.2610002 4.7129998 -1.756 0.2
-6.2909999 4.7210002 -1.763 0.25
-6.3169999 4.7090001 -1.767 0.47999999
-6.3390002 4.6950002 -1.7690001 0.67000002
-6.3590002 4.678 -1.77 0.69
-6.3779998 4.6620002 -1.772 0.69999999
-6.3899999 4.6389999 -1.771 0.63999999
-6.3979998 4.6149998 -1.7690001 0.72000003
-6.4190001 4.6149998 -1.773 0.38
-6.4320002 4.5939999 -1.773 0.54000002
-6.4640002 4.586 -1.778 0.44999999
-6.4590001 4.552 -1.772 0.33000001
-6.4770002 4.5339999 -1.773 0.31999999
-6.4819999 4.507 -1.77 0.30000001
-6.4910002 4.4829998 -1.7690001 0.28999999
-6.5170002 4.4860001 -1.775 0.28
-6.5180001 4.4569998 -1.771 0.28999999
-6.54 4.4419999 -1.773 0.28999999
-6.5539999 4.421 -1.773 0.28
-6.5700002 4.402 -1.774 0.27000001
-6.5830002 4.381 -1.774 0.27000001
-6.6020002 4.3639998 -1.775 0.27000001
-6.6090002 4.3530002 -1.775 0.25999999
-6.6259999 4.335 -1.776 0.23999999
-6.6329999 4.3099999 -1.774 0.2
-6.6719999 4.3060002 -1.7819999 0.28999999
-6.6700001 4.2740002 -1.777 0.25
-6.6989999 4.2639999 -1.7819999 0.25
-6.6960001 4.2319999 -1.777 0.19
-6.7329998 4.2259998 -1.784 0.28
-6.7389998 4.2150002 -1.784 0.22
-6.7410002 4.1869998 -1.78 0.19
-6.7810001 4.1820002 -1.788 0.28999999
-6.7870002 4.1570001 -1.786 0.23999999
-6.802 4.1360002 -1.786 0.19
-6.8260002 4.1220002 -1.79 0.27000001
-6.829 4.0939999 -1.7869999 0.22
-6.8390002 4.086 -1.788 0.2
-6.868 4.0739999 -1.7920001 0.25
-6.8639998 4.0430002 -1.788 0.22
-6.882 4.0240002 -1.789 0.18000001
-6.9099998 4.0110002 -1.793 0.25999999
-6.914 3.9849999 -1.791 0.23
-6.915 3.9560001 -1.788 0.17
-6.9359999 3.954 -1.7920001 0.25999999
-6.9569998 3.937 -1.794 0.19
-6.9829998 3.9230001 -1.798 0.23999999
-6.9829998 3.8940001 -1.795 0.19
-7.0120001 3.882 -1.799 0.22
-7.013 3.8529999 -1.796 0.19
-7.033 3.836 -1.798 0.22
-7.0380001 3.8239999 -1.798 0.2
-7.0549998 3.8039999 -1.799 0.23
-7.0599999 3.7780001 -1.7970001 0.2
-7.0900002 3.766 -1.803 0.22
-7.0939999 3.7390001 -1.8 0.2
-7.1170001 3.723 -1.804 0.23
-7.119 3.6960001 -1.801 0.2
-7.1230001 3.684 -1.8 0.23
-7.1459999 3.6670001 -1.804 0.19
-7.1750002 3.654 -1.808 0.20999999
-7.1550002 3.615 -1.8 0.17
-7.1880002 3.6029999 -1.8049999 0.23
-7.197 3.5799999 -1.8049999 0.19
-7.2069998 3.556 -1.804 0.23
-7.2049999 3.5420001 -1.803 0.19
-7.2360001 3.5280001 -1.808 0.22
-7.2119999 3.4890001 -1.798 0.18000001
-7.2420001 3.4749999 -1.804 0.23
-7.27 3.461 -1.808 0.2
-7.2740002 3.4349999 -1.806 0.12
-7.2670002 3.404 -1.802 0.2
-7.2950001 3.3889999 -1.806 0.11
-7.2880001 3.372 -1.803 0.2
-7.3249998 3.3610001 -1.8099999 0.11
-7.3340001 3.3369999 -1.8099999 0.090000004
-7.3379998 3.3110001 -1.808 0.079999998
-7.3530002 3.29 -1.809 0.039999999
-7.3850002 3.277 -1.8150001 0
-7.3629999 3.2390001 -1.806 0
-7.382 3.234 -1.8099999 0
-7.3930001 3.211 -1.8099999 0
-7.415 3.1930001 -1.813 0
-7.4200001 3.1670001 -1.812 0
-7.4369998 3.1470001 -1.814 0
-7.4380002 3.1199999 -1.811 0
-7.4460001 3.096 -1.811 0
-7.461 3.089 -1.814 0
-7.4390001 3.052 -1.8049999 0
-7.4590001 3.033 -1.808 0
-7.4920001 3.0190001 -1.814 0
-7.4959998 2.993 -1.813 0
-7.4910002 2.964 -1.809 0
-7.5110002 2.9449999 -1.812 0
-7.5050001 2.928 -1.809 0
-7.5359998 2.9130001 -1.8150001 0
-7.5479999 2.891 -1.816 0
-7.5359998 2.859 -1.8099999 0
-7.5539999 2.839 -1.812 0
-7.5840001 2.823 -1.818 0
-7.6129999 2.8069999 -1.823 0
-7.6170001 2.7809999 -1.822 0
-7.6300001 2.7720001 -1.824 0
-7.6020002 2.7349999 -1.8150001 0
-7.6160002 2.7130001 -1.816 0.029999999
-7.638 2.694 -1.819 0.029999999
-7.6500001 2.671 -1.8200001 0.039999999
-7.645 2.6429999 -1.817 0.07
-7.6750002 2.6259999 -1.823 0.079999998
-7.6700001 2.6110001 -1.8200001 0.079999998
-7.6799998 2.5869999 -1.821 0.090000004
-7.6919999 2.5639999 -1.822 0.18000001
-7.6929998 2.5380001 -1.8200001 0.050000001
-7.6900001 2.51 -1.817 0.16
-7.7329998 2.497 -1.826 0.2
-7.7270002 2.4690001 -1.823 0.1
-7.7069998 2.4489999 -1.817 0.19
-7.75 2.4360001 -1.825 0.11
-7.7280002 2.402 -1.818 0.20999999
-7.7540002 2.3840001 -1.823 0.1
-7.756 2.358 -1.821 0.2
-7.7729998 2.336 -1.824 0.11
-7.7690001 2.3080001 -1.821 0.2
-7.8039999 2.306 -1.829 0.11
-7.7930002 2.276 -1.824 0.20999999
-7.8049998 2.253 -1.825 0.11
-7.8119998 2.2279999 -1.825 0.2
-7.823 2.2049999 -1.826 0.1
-7.8189998 2.177 -1.824 0.2
-7.8460002 2.158 -1.829 0.11
-7.8270001 2.1389999 -1.823 0.18000001
-7.8429999 2.1170001 -1.825 0.20999999
-7.8610001 2.096 -1.8279999 0.1
-7.8530002 2.0669999 -1.825 0.19
-7.8649998 2.0439999 -1.826 0.11
-7.8769999 2.0209999 -1.827 0.18000001
-7.875 1.994 -1.825 0.20999999
-7.8779998 1.9680001 -1.825 0.19
-7.8959999 1.96 -1.8279999 0.23
-7.8850002 1.931 -1.824 0.18000001
-7.8930001 1.906 -1.825 0.23
-7.9029999 1.882 -1.825 0.2
-7.9120002 1.859 -1.826 0.23
-7.9029999 1.83 -1.823 0.19
-7.9239998 1.809 -1.826 0.23999999
-7.908 1.7920001 -1.822 0.19
-7.9320002 1.771 -1.826 0.23
-7.9320002 1.745 -1.825 0.19
-7.9419999 1.721 -1.826 0.25
-7.9390001 1.6950001 -1.824 0.22
-7.941 1.669 -1.823 0.18000001
-7.9689999 1.649 -1.829 0.25999999
-7.9499998 1.632 -1.824 0.19
-7.9780002 1.6109999 -1.829 0.25
-7.9780002 1.585 -1.8279999 0.20999999
-7.9710002 1.558 -1.825 0.17
-7.9629998 1.53 -1.822 0.34
-7.9710002 1.506 -1.823 0.37
-7.9759998 1.4809999 -1.823 0.38
-7.9840002 1.469 -1.824 0.34
-7.994 1.4450001 -1.825 0.38999999
-8.033 1.426 -1.834 0.44999999
-8.0570002 1.405 -1.839 0.12
-8.0209999 1.372 -1.829 0.17
-8.0410004 1.35 -1.832 0.12
-8.0469999 1.325 -1.8329999 0.20999999
-8.0430002 1.298 -1.831 0.2
-8.0679998 1.289 -1.837 0.25
-8.0699997 1.2640001 -1.836 0.22
-8.1149998 1.245 -1.846 0.22
-8.132 1.221 -1.849 0.25
-8.1199999 1.193 -1.846 0.23999999
-8.1199999 1.1799999 -1.845 0.19
-8.1409998 1.1569999 -1.849 0.27000001
-8.1350002 1.13 -1.847 0.25
-8.1370001 1.105 -1.846 0.2
-8.1730003 1.0829999 -1.854 0.27000001
-8.1689997 1.057 -1.853 0.20999999
-8.1719999 1.031 -1.853 0.23
-8.1619997 1.0039999 -1.849 0.2
-8.1920004 0.99400002 -1.8559999 0.23999999
-8.184 0.96700001 -1.853 0.19
-8.1999998 0.94300002 -1.857 0.22
-8.1820002 0.91500002 -1.852 0.19
-8.1999998 0.89099997 -1.855 0.23
-8.2030001 0.86500001 -1.855 0.20999999
-8.217 0.84100002 -1.858 0.23
-8.2010002 0.82599998 -1.854 0.18000001
-8.2150002 0.801 -1.857 0.13
-8.2040005 0.77399999 -1.853 0.20999999
-8.2320004 0.75099999 -1.86 0.11
-8.2130003 0.72299999 -1.854 0.19
-8.2360001 0.699 -1.86 0.11
-8.2309999 0.67299998 -1.858 0.17
-8.2399998 0.66000003 -1.86 0.20999999
-8.224 0.63300002 -1.855 0.2
-8.2360001 0.60799998 -1.858 0.22
-8.2320004 0.58200002 -1.8559999 0.2
-8.2340002 0.55599999 -1.8559999 0.11
-8.2349997 0.52999997 -1.8559999 0.2
-8.2410002 0.50400001 -1.857 0.11
-8.2320004 0.491 -1.855 0.18000001
-8.2390003 0.465 -1.8559999 0.20999999
-8.2480001 0.44 -1.858 0.1
-8.2340002 0.41299999 -1.854 0.2
-8.2589998 0.38800001 -1.86 0.1
-8.2519999 0.36199999 -1.858 0.18000001
-8.2550001 0.336 -1.859 0.20999999
-8.2360001 0.322 -1.854 0.18000001
-8.2589998 0.29699999 -1.859 0.23
-8.2559996 0.271 -1.858 0.2
-8.2530003 0.245 -1.857 0.22
-8.2440004 0.219 -1.855 0.19
-8.2539997 0.193 -1.857 0.23999999
-8.2530003 0.167 -1.857 0.22
-8.2489996 0.141 -1.8559999 0.20999999
-8.2690001 0.12899999 -1.86 0.25
-8.2589998 0.103 -1.858 0.19
-8.2749996 0.077 -1.862 0.25
-8.2539997 0.050999999 -1.857 0.2
-8.2740002 0.025 -1.8609999 0.23999999
-8.2580004 -0.001 -1.858 0.2
-8.2720003 -0.027000001 -1.8609999 0.23
-8.2559996 -0.039999999 -1.857 0.20999999
-8.2600002 -0.066 -1.858 0.2
-8.2810001 -0.092 -1.863 0.23999999
-8.2530003 -0.118 -1.857 0.20999999
-8.2449999 -0.14399999 -1.855 0.2
-8.2720003 -0.17 -1.8609999 0.25
-8.2519999 -0.19599999 -1.857 0.18000001
-8.2629995 -0.20900001 -1.86 0.23999999
-8.2609997 -0.235 -1.859 0.22
-8.2480001 -0.25999999 -1.8559999 0.20999999
-8.2530003 -0.287 -1.858 0.25
-8.2659998 -0.31299999 -1.8609999 0.23
-8.243 -0.338 -1.8559999 0.2
-8.2539997 -0.36500001 -1.859 0.25
-8.2480001 -0.377 -1.857 0.19
-8.2679996 -0.40400001 -1.862 0.23999999
-8.2390003 -0.42899999 -1.8559999 0.2
-8.2729998 -0.456 -1.864 0.25
-8.2539997 -0.48100001 -1.86 0.2
-8.2460003 -0.50700003 -1.859 0.12
-8.2489996 -0.53299999 -1.86 0.2
-8.2519999 -0.546 -1.86 0.11
-8.2290001 -0.57099998 -1.855 0.2
-8.2600002 -0.59899998 -1.863 0.11
-8.2250004 -0.62300003 -1.855 0.19
-8.2360001 -0.64899999 -1.859 0.11
-8.2320004 -0.67500001 -1.858 0.18000001
-8.2460003 -0.70200002 -1.862 0.11
-8.2329998 -0.71399999 -1.859 0.18000001
-8.2519999 -0.74199998 -1.864 0.22
-8.2279997 -0.76599997 -1.859 0.1
-8.2139997 -0.79100001 -1.8559999 0.19
-8.2390003 -0.81900001 -1.863 0.11
-8.217 -0.84299999 -1.858 0.19
-8.2279997 -0.87 -1.8609999 0.11
-8.2189999 -0.89600003 -1.86 0.18000001
-8.2200003 -0.90899998 -1.86 0.11
-8.2069998 -0.93300003 -1.858 0.19
-8.2270002 -0.96200001 -1.864 0.11
-8.2049999 -0.98500001 -1.859 0.19
-8.2209997 -1.0140001 -1.864 0.11
-8.2159996 -1.039 -1.863 0.2
-8.2130003 -1.0650001 -1.863 0.11
-8.198 -1.076 -1.86 0.2
-8.217 -1.105 -1.8660001 0.1
-8.1999998 -1.1289999 -1.862 0.18000001
-8.1990004 -1.155 -1.863 0.12
-8.191 -1.1799999 -1.862 0.18000001
-8.1929998 -1.207 -1.863 0.20999999
-8.1719999 -1.23 -1.859 0.19
-8.1890001 -1.2460001 -1.864 0.12
-8.1560001 -1.267 -1.857 0.20999999
-8.1520004 -1.293 -1.857 0.2
-8.1680002 -1.321 -1.8609999 0.23
-8.1630001 -1.347 -1.8609999 0.2
-8.1610003 -1.373 -1.862 0.12
-8.1359997 -1.395 -1.857 0.20999999
-8.1490002 -1.41 -1.86 0.11
-8.1309996 -1.434 -1.857 0.20999999
-8.1429996 -1.462 -1.8609999 0.2
-8.1499996 -1.49 -1.864 0.25
-8.1300001 -1.513 -1.86 0.22
-8.1239996 -1.538 -1.86 0.12
-8.1090002 -1.561 -1.858 0.20999999
-8.0950003 -1.572 -1.855 0.18000001
-8.1149998 -1.602 -1.8609999 0.25999999
-8.0950003 -1.625 -1.857 0.18000001
-8.1009998 -1.652 -1.86 0.23999999
-8.0959997 -1.678 -1.86 0.19
-8.0909996 -1.7029999 -1.86 0.23
-8.0780001 -1.727 -1.858 0.2
-8.0909996 -1.756 -1.863 0.12
-8.0769997 -1.767 -1.86 0.18000001
-8.0769997 -1.793 -1.8609999 0.23
-8.0749998 -1.8200001 -1.862 0.19
-8.0690002 -1.845 -1.862 0.22
-8.0480003 -1.867 -1.859 0.19
-8.0600004 -1.896 -1.863 0.23999999
-8.0459995 -1.92 -1.8609999 0.19
-8.0579996 -1.936 -1.865 0.23999999
-8.033 -1.957 -1.86 0.18000001
-8.0530005 -1.988 -1.867 0.23999999
-8.0380001 -2.0109999 -1.864 0.18000001
-8.0500002 -2.0409999 -1.869 0.23999999
-8.0290003 -2.063 -1.865 0.2
-8.033 -2.0910001 -1.868 0.23
-8.0240002 -2.102 -1.867 0.2
-8.0229998 -2.1289999 -1.868 0.22
-8.0200005 -2.155 -1.869 0.2
-8.0080004 -2.178 -1.867 0.12
-7.9920001 -2.201 -1.865 0.2
-8.0050001 -2.2320001 -1.87 0.11
-7.9910002 -2.2550001 -1.868 0.18000001
-7.987 -2.267 -1.868 0.050000001
-7.9749999 -2.2909999 -1.867 0.17
-7.9780002 -2.319 -1.87 0.050000001
-7.9580002 -2.3399999 -1.867 0
-7.967 -2.3699999 -1.8710001 0
-7.954 -2.3940001 -1.869 0
-7.9380002 -2.4159999 -1.867 0
-7.9359999 -2.4289999 -1.867 0
-7.934 -2.4549999 -1.869 0
-7.9310002 -2.4820001 -1.87 0
-7.927 -2.5079999 -1.8710001 0
-7.9169998 -2.533 -1.8710001 0
-7.9260001 -2.563 -1.875 0
-7.9000001 -2.582 -1.87 0
-7.9060001 -2.6110001 -1.874 0
-7.9060001 -2.625 -1.875 0
-7.8790002 -2.6440001 -1.87 0
-7.8559999 -2.6630001 -1.867 0
-7.8730001 -2.697 -1.873 0
-7.8569999 -2.7190001 -1.8710001 0
-7.8670001 -2.75 -1.876 0
-7.8639998 -2.777 -1.877 0
-7.8600001 -2.789 -1.877 0
-7.8449998 -2.812 -1.876 0
-7.842 -2.8380001 -1.877 0
-7.8179998 -2.858 -1.874 0
-7.8150001 -2.8840001 -1.875 0
-7.7979999 -2.9059999 -1.873 0
-7.7969999 -2.9330001 -1.875 0
-7.8080001 -2.9519999 -1.8789999 0
-7.7989998 -2.9760001 -1.8789999 0
-7.7789998 -2.9960001 -1.876 0
-7.8060002 -3.0350001 -1.886 0
-7.7979999 -3.0599999 -1.886 0
-7.783 -3.082 -1.885 0
-7.7420001 -3.095 -1.877 0
-7.7540002 -3.1129999 -1.881 0
-7.7379999 -3.135 -1.88 0
-7.73 -3.161 -1.88 0
-7.717 -3.1830001 -1.8789999 0.059999999
-7.7189999 -3.2130001 -1.882 0.15000001
-7.697 -3.2320001 -1.8789999 0.16
-7.678 -3.2520001 -1.877 0.039999999
-7.6900001 -3.2720001 -1.881 0.16
-7.684 -3.2969999 -1.882 0.050000001
-7.664 -3.3180001 -1.88 0.17
-7.6589999 -3.3440001 -1.881 0.2
-7.6490002 -3.368 -1.881 0.1
-7.6329999 -3.3900001 -1.88 0.2
-7.625 -3.415 -1.881 0.11
-7.618 -3.4260001 -1.881 0.18000001
-7.6160002 -3.454 -1.883 0.20999999
-7.5879998 -3.47 -1.878 0.2
-7.598 -3.5039999 -1.8839999 0.11
-7.5689998 -3.52 -1.8789999 0.2
-7.5780001 -3.552 -1.8839999 0.11
-7.5469999 -3.5669999 -1.8789999 0.20999999
-7.5630002 -3.589 -1.885 0.11
-7.5440001 -3.609 -1.883 0.18000001
-7.5430002 -3.638 -1.886 0.11
-7.5339999 -3.6619999 -1.886 0.18000001
-7.5240002 -3.687 -1.887 0.11
-7.5120001 -3.711 -1.887 0.2
-7.5110002 -3.7390001 -1.8890001 0.11
-7.494 -3.76 -1.888 0.20999999
-7.4990001 -3.777 -1.891 0.11
-7.4759998 -3.796 -1.888 0.19
-7.4829998 -3.829 -1.893 0.11
-7.4559999 -3.8440001 -1.8890001 0.20999999
-7.454 -3.8729999 -1.892 0.11
-7.4299998 -3.8900001 -1.888 0.2
-7.4349999 -3.9219999 -1.893 0.11
-7.4159999 -3.928 -1.89 0.2
-7.414 -3.957 -1.893 0.11
-7.4089999 -3.983 -1.895 0.18000001
-7.3930001 -4.0050001 -1.8940001 0.12
-7.3850002 -4.0310001 -1.895 0.18000001
-7.3860002 -4.0619998 -1.899 0.22
-7.3530002 -4.073 -1.893 0.2
-7.3569999 -4.0910001 -1.896 0.23999999
-7.3319998 -4.1069999 -1.893 0.22
-7.3260002 -4.1339998 -1.895 0.2
-7.3249998 -4.164 -1.898 0.25
-7.3000002 -4.1799998 -1.895 0.18000001
-7.302 -4.211 -1.899 0.25
-7.2800002 -4.23 -1.896 0.25
-7.263 -4.2350001 -1.8940001 0.20999999
-7.2600002 -4.2639999 -1.896 0.23999999
-7.237 -4.2810001 -1.8940001 0.23999999
-7.2329998 -4.309 -1.896 0.22
-7.2249999 -4.335 -1.898 0.25
-7.1929998 -4.3470001 -1.893 0.22
-7.1919999 -4.3769999 -1.896 0.18000001
-7.1799998 -4.3860002 -1.895 0.27000001
-7.165 -4.4070001 -1.895 0.25
-7.1529999 -4.4310002 -1.895 0.27000001
-7.1269999 -4.4460001 -1.892 0.25
-7.125 -4.4749999 -1.895 0.23
-7.0970001 -4.4899998 -1.891 0.18000001
-7.1030002 -4.5240002 -1.897 0.28999999
-7.0840001 -4.5279999 -1.8940001 0.23999999
-7.0900002 -4.5630002 -1.899 0.25999999
-7.0479999 -4.5669999 -1.891 0.27000001
-7.0430002 -4.5960002 -1.8940001 0.28
-7.0370002 -4.6230001 -1.896 0.28
-7.0040002 -4.6339998 -1.891 0.27000001
-7.0009999 -4.6630001 -1.895 0.25999999
-7.0029998 -4.6960001 -1.899 0.28
-6.9770002 -4.6950002 -1.8940001 0.28
-6.9629998 -4.717 -1.8940001 0.28
-6.9699998 -4.7540002 -1.901 0.28999999
-6.934 -4.7620001 -1.895 0.27000001
-6.9229999 -4.7849998 -1.895 0.28
-6.9169998 -4.8140001 -1.898 0.28
-6.8969998 -4.8319998 -1.897 0.25999999
-6.8959999 -4.848 -1.899 0.28999999
-6.8850002 -4.8730001 -1.9 0.28999999
-6.862 -4.888 -1.898 0.28999999
-6.8330002 -4.9000001 -1.8940001 0.28
-6.816 -4.9200001 -1.893 0.27000001
-6.7610002 -4.9130001 -1.881 0.33000001
-6.7140002 -4.9109998 -1.872 0.30000001
-6.7030001 -4.9200001 -1.8710001 0.30000001
-6.651 -4.914 -1.86 0.30000001
-6.612 -4.9180002 -1.853 0.31999999
-6.5879998 -4.9320002 -1.851 0.31999999
-6.527 -4.9180002 -1.837 0.30000001
-6.4990001 -4.9299998 -1.8329999 0.34
-6.4679999 -4.9380002 -1.829 0.28999999
-6.421 -4.9190001 -1.817 0.30000001
-6.3909998 -4.927 -1.812 0.31999999
-6.3520002 -4.9289999 -1.8049999 0.28
-6.2979999 -4.9200001 -1.794 0.31
-6.2729998 -4.9320002 -1.791 0.34
-6.25 -4.9460001 -1.789 0.37
-6.2069998 -4.9439998 -1.78 0.31999999
-6.2129998 -4.9640002 -1.784 0.30000001
-6.1820002 -4.9720001 -1.78 0.30000001
-6.1609998 -4.9860001 -1.778 0.30000001
-6.1399999 -5.0019999 -1.777 0.28
-6.1339998 -5.0289998 -1.779 0.34999999
-6.092 -5.027 -1.771 0.30000001
-6.072 -5.0419998 -1.77 0.30000001
-6.0409999 -5.033 -1.763 0.28999999
-6.0149999 -5.0430002 -1.76 0.34999999
-5.9689999 -5.0370002 -1.75 0.33000001
-5.9629998 -5.0640001 -1.753 0.36000001
-5.9549999 -5.0900002 -1.756 0.30000001
-5.9169998 -5.0900002 -1.749 0.40000001
-5.9159999 -5.1209998 -1.7539999 0.37
-5.8839998 -5.1100001 -1.7460001 0.31999999
-5.8730001 -5.132 -1.748 0.31999999
-5.8829999 -5.1729999 -1.756 0.28999999
-5.881 -5.2049999 -1.761 0.31
-5.8610001 -5.2189999 -1.7589999 0.28999999
-5.8400002 -5.2340002 -1.758 0.30000001
-5.8099999 -5.2410002 -1.7539999 0.31
-5.8000002 -5.2639999 -1.756 0.30000001
-5.7909999 -5.2729998 -1.756 0.28999999
-5.7750001 -5.2909999 -1.756 0.30000001
-5.7480001 -5.3000002 -1.752 0.30000001
-5.7340002 -5.3210001 -1.753 0.31
-5.71 -5.3319998 -1.751 0.30000001
-5.6919999 -5.349 -1.75 0.30000001
-5.677 -5.368 -1.751 0.30000001
-5.6669998 -5.3759999 -1.75 0.30000001
-5.6300001 -5.375 -1.744 0.30000001
-5.6290002 -5.4070001 -1.749 0.30000001
-5.605 -5.4180002 -1.747 0.31
-5.5689998 -5.4180002 -1.7410001 0.28999999
-5.494 -5.3779998 -1.721 0.27000001
-5.487 -5.4050002 -1.724 0.27000001
-5.4819999 -5.4180002 -1.726 0.28
-5.487 -5.4569998 -1.733 0.28999999
-5.4879999 -5.4920001 -1.739 0.28
-5.4749999 -5.513 -1.7410001 0.31
-5.4559999 -5.5289998 -1.74 0.30000001
-5.4390001 -5.546 -1.74 0.31
-5.421 -5.5630002 -1.74 0.30000001
-5.4050002 -5.5630002 -1.737 0.31
-5.388 -5.5819998 -1.738 0.28999999
-5.3629999 -5.5900002 -1.735 0.30000001
-5.3460002 -5.6090002 -1.735 0.28999999
-5.3299999 -5.6269999 -1.7359999 0.31
-5.3140001 -5.645 -1.7359999 0.28999999
-5.2930002 -5.6589999 -1.735 0.30000001
-5.27 -5.651 -1.73 0.28999999
-5.2589998 -5.6750002 -1.733 0.28999999
-5.2410002 -5.6919999 -1.733 0.31
-5.2150002 -5.6989999 -1.73 0.28999999
-5.1999998 -5.7189999 -1.7309999 0.30000001
-5.1799998 -5.7340002 -1.73 0.30000001
-5.164 -5.7509999 -1.7309999 0.28999999
-5.1420002 -5.7449999 -1.726 0.30000001
-5.1269999 -5.7649999 -1.728 0.28999999
-5.1110001 -5.783 -1.728 0.28999999
-5.0900002 -5.796 -1.727 0.28
-5.073 -5.8130002 -1.728 0.28999999
-5.0469999 -5.8210001 -1.725 0.30000001
-5.027 -5.835 -1.724 0.28999999
-5.0180001 -5.8429999 -1.724 0.28999999
-5.0040002 -5.8629999 -1.726 0.28999999
-4.9809999 -5.8740001 -1.724 0.28
-4.96 -5.8870001 -1.723 0.28
-4.9359999 -5.895 -1.721 0.28999999
-4.9060001 -5.8969998 -1.717 0.30000001
-4.8959999 -5.9229999 -1.72 0.27000001
-4.8839998 -5.928 -1.719 0.28
-4.8670001 -5.9439998 -1.72 0.27000001
-4.8530002 -5.9660001 -1.721 0.28999999
-4.822 -5.9660001 -1.717 0.28
-4.802 -5.9790001 -1.716 0.28
-4.7919998 -6.0050001 -1.72 0.28
-4.7519999 -5.994 -1.712 0.30000001
-4.7449999 -6.0050001 -1.7130001 0.25999999
-4.737 -6.033 -1.717 0.28999999
-4.71 -6.0370002 -1.714 0.28999999
-4.6869998 -6.0479999 -1.712 0.28
-4.6750002 -6.072 -1.715 0.27000001
-4.651 -6.0799999 -1.7130001 0.28999999
-4.6230001 -6.0819998 -1.709 0.28
-4.6220002 -6.0999999 -1.7130001 0.28
-4.5910001 -6.099 -1.7079999 0.28999999
-4.573 -6.1149998 -1.7079999 0.28
-4.559 -6.1370001 -1.711 0.28999999
-4.5320001 -6.1409998 -1.707 0.28999999
-4.5139999 -6.1570001 -1.7079999 0.28
-4.494 -6.171 -1.7079999 0.28999999
-4.467 -6.1739998 -1.705 0.30000001
-4.4569998 -6.1810002 -1.705 0.30000001
-4.447 -6.2069998 -1.7079999 0.30000001
-4.4169998 -6.2069998 -1.704 0.30000001
-4.3979998 -6.2210002 -1.704 0.30000001
-4.3850002 -6.244 -1.707 0.30000001
-4.3530002 -6.2399998 -1.702 0.30000001
-4.3460002 -6.2519999 -1.7029999 0.30000001
-4.3270001 -6.2659998 -1.7029999 0.28999999
-4.2969999 -6.2649999 -1.699 0.28999999
-4.2789998 -6.2820001 -1.7 0.28
-4.2709999 -6.3109999 -1.705 0.31999999
-4.2399998 -6.3080001 -1.7 0.30000001
-4.2150002 -6.3140001 -1.698 0.28999999
-4.2010002 -6.336 -1.7 0.30000001
-4.1820002 -6.3280001 -1.696 0.30000001
-4.1599998 -6.3379998 -1.6950001 0.30000001
-4.1420002 -6.355 -1.696 0.31
-4.1079998 -6.3460002 -1.6900001 0.28
-4.0929999 -6.3670001 -1.693 0.28999999
-4.0739999 -6.382 -1.693 0.28999999
-4.0510001 -6.3899999 -1.692 0.31
-4.039 -6.3930001 -1.691 0.28
-4.0170002 -6.402 -1.6900001 0.38999999
-3.984 -6.395 -1.684 0.34
-3.9820001 -6.4359999 -1.692 0.23
-3.9549999 -6.4380002 -1.689 0.5
-3.938 -6.4559999 -1.691 0.33000001
-3.9119999 -6.4580002 -1.688 0.5
-3.9070001 -6.4720001 -1.6900001 0.40000001
-3.882 -6.4780002 -1.688 0.44999999
-3.8610001 -6.4879999 -1.688 0.44
-3.842 -6.5040002 -1.689 0.47
-3.819 -6.5110002 -1.687 0.44999999
-3.783 -6.4959998 -1.6799999 0.58999997
-3.7850001 -6.5240002 -1.686 0.27000001
-3.75 -6.5100002 -1.679 0.56999999
-3.7279999 -6.5190001 -1.678 0.43000001
-3.71 -6.5359998 -1.6799999 0.36000001
-3.691 -6.5489998 -1.6799999 0.34
-3.6670001 -6.5549998 -1.679 0.30000001
-3.6470001 -6.5669999 -1.679 0.28999999
-3.6370001 -6.5739999 -1.679 0.31999999
-3.6159999 -6.5840001 -1.679 0.30000001
-3.589 -6.585 -1.676 0.28
-3.5739999 -6.6059999 -1.679 0.31999999
-3.546 -6.6040001 -1.675 0.28999999
-3.52 -6.605 -1.6720001 0.30000001
-3.4960001 -6.6110001 -1.671 0.28999999
-3.4790001 -6.6290002 -1.673 0.30000001
-3.4679999 -6.632 -1.6720001 0.28999999
-3.4489999 -6.6479998 -1.673 0.28999999
-3.421 -6.6440001 -1.669 0.28999999
-3.401 -6.658 -1.67 0.28999999
-3.3800001 -6.6669998 -1.67 0.28999999
-3.3599999 -6.6789999 -1.67 0.31
-3.3340001 -6.6810002 -1.668 0.28
-3.326 -6.691 -1.669 0.31999999
-3.3050001 -6.7020001 -1.669 0.30000001
-3.2809999 -6.7049999 -1.6670001 0.28999999
-3.2609999 -6.7189999 -1.668 0.31999999
-3.237 -6.7220001 -1.666 0.30000001
-3.217 -6.7340002 -1.6670001 0.30000001
-3.188 -6.7280002 -1.663 0.28
-3.1819999 -6.744 -1.666 0.31
-3.1600001 -6.7519999 -1.665 0.30000001
-3.1370001 -6.7579999 -1.664 0.31
-3.112 -6.7589998 -1.6619999 0.30000001
-3.0910001 -6.7690001 -1.6619999 0.31
-3.0680001 -6.7750001 -1.661 0.30000001
-3.046 -6.783 -1.66 0.28999999
-3.0339999 -6.7859998 -1.66 0.31
-3.0109999 -6.7919998 -1.659 0.31
-2.9920001 -6.8049998 -1.66 0.31
-2.967 -6.8070002 -1.658 0.30000001
-2.9449999 -6.8150001 -1.658 0.31
-2.9230001 -6.8239999 -1.658 0.30000001
-2.9030001 -6.835 -1.658 0.30000001
-2.8900001 -6.8340001 -1.6569999 0.31
-2.868 -6.8410001 -1.656 0.30000001
-2.8440001 -6.8449998 -1.655 0.30000001
-2.8239999 -6.8569999 -1.656 0.30000001
-2.8010001 -6.8639998 -1.655 0.30000001
-2.7750001 -6.862 -1.652 0.30000001
-2.7550001 -6.8730001 -1.653 0.31
-2.7420001 -6.8740001 -1.652 0.31
-2.721 -6.8839998 -1.652 0.28999999
-2.7 -6.8930001 -1.652 0.28999999
-2.6760001 -6.8959999 -1.651 0.30000001
-2.654 -6.902 -1.651 0.30000001
-2.6240001 -6.8899999 -1.645 0.28
-2.6029999 -6.9000001 -1.646 0.31
-2.595 -6.9099998 -1.647 0.28999999
-2.576 -6.927 -1.65 0.30000001
-2.552 -6.928 -1.648 0.31
-2.5309999 -6.9380002 -1.648 0.31
-2.5039999 -6.9330001 -1.645 0.31
-2.4849999 -6.948 -1.647 0.31
-2.461 -6.9489999 -1.645 0.30000001
-2.448 -6.9489999 -1.6440001 0.30000001
-2.4260001 -6.9549999 -1.6440001 0.31
-2.408 -6.9749999 -1.647 0.27000001
-2.3800001 -6.9619999 -1.642 0.28999999
-2.358 -6.9699998 -1.642 0.31999999
-2.3429999 -6.9990001 -1.647 0.31
-2.316 -6.9920001 -1.6440001 0.31
-2.3 -6.9809999 -1.64 0.28999999
-2.2809999 -6.9949999 -1.642 0.28999999
-2.2520001 -6.9819999 -1.637 0.28999999
-2.233 -6.9980001 -1.6390001 0.31
-2.2149999 -7.0159998 -1.642 0.30000001
-2.1860001 -7.0029998 -1.637 0.30000001
-2.164 -7.0100002 -1.637 0.28
-2.1570001 -7.0240002 -1.6390001 0.31
-2.128 -7.0110002 -1.6339999 0.28999999
-2.1070001 -7.0190001 -1.635 0.31999999
-2.092 -7.0500002 -1.641 0.31
-2.0610001 -7.0250001 -1.633 0.28999999
-2.0409999 -7.0409999 -1.635 0.31
-2.0209999 -7.0539999 -1.637 0.28
-2.006 -7.0430002 -1.633 0.31
-1.984 -7.0510001 -1.6339999 0.30000001
-1.965 -7.0679998 -1.637 0.28
-1.941 -7.0669999 -1.635 0.31999999
-1.915 -7.0580001 -1.631 0.28
-1.895 -7.073 -1.633 0.28999999
-1.8710001 -7.072 -1.631 0.28999999
-1.857 -7.0650001 -1.6289999 0.30000001
-1.84 -7.0900002 -1.6339999 0.28999999
-1.814 -7.0819998 -1.631 0.30000001
-1.7920001 -7.0900002 -1.631 0.28999999
-1.773 -7.105 -1.633 0.31
-1.743 -7.0799999 -1.626 0.28
-1.722 -7.0910001 -1.627 0.30000001
-1.7130001 -7.1020002 -1.6289999 0.30000001
-1.688 -7.0970001 -1.627 0.30000001
-1.663 -7.0929999 -1.624 0.28999999
-1.646 -7.119 -1.63 0.28999999
-1.62 -7.1069999 -1.625 0.28999999
-1.596 -7.105 -1.624 0.28999999
-1.577 -7.1269999 -1.628 0.28999999
-1.562 -7.1139998 -1.624 0.28999999
-1.5420001 -7.1290002 -1.626 0.28999999
-1.52 -7.1350002 -1.627 0.31999999
-1.493 -7.119 -1.622 0.28
-1.475 -7.1430001 -1.626 0.28999999
-1.452 -7.1440001 -1.625 0.28999999
-1.429 -7.1479998 -1.625 0.28999999
-1.418 -7.1500001 -1.625 0.30000001
-1.396 -7.1570001 -1.626 0.30000001
-1.373 -7.1609998 -1.626 0.31999999
-1.348 -7.1500001 -1.622 0.28999999
-1.3279999 -7.1700001 -1.626 0.28999999
-1.303 -7.1599998 -1.623 0.28999999
-1.2819999 -7.1719999 -1.624 0.28999999
-1.271 -7.1739998 -1.624 0.28999999
-1.249 -7.178 -1.624 0.30000001
-1.224 -7.1680002 -1.6210001 0.30000001
-1.202 -7.1760001 -1.622 0.30000001
-1.1799999 -7.1869998 -1.624 0.28999999
-1.156 -7.1820002 -1.622 0.28999999
-1.1339999 -7.1890001 -1.623 0.30000001
-1.123 -7.1890001 -1.622 0.28999999
-1.1 -7.1900001 -1.622 0.30000001
-1.0779999 -7.1960001 -1.622 0.30000001
-1.057 -7.2140002 -1.626 0.33000001
-1.033 -7.2059999 -1.623 0.31
-1.007 -7.1900001 -1.618 0.28999999
-0.986 -7.1989999 -1.62 0.30000001
-0.97500002 -7.2080002 -1.622 0.28999999
-0.95200002 -7.2059999 -1.62 0.28999999
-0.93000001 -7.21 -1.6210001 0.30000001
-0.90700001 -7.2150002 -1.6210001 0.30000001
-0.884 -7.21 -1.619 0.30000001
-0.86199999 -7.2189999 -1.6210001 0.31999999
-0.838 -7.2160001 -1.619 0.28999999
-0.82700002 -7.2210002 -1.62 0.28999999
-0.80400002 -7.2199998 -1.619 0.28999999
-0.78100002 -7.2140002 -1.617 0.28999999
-0.75800002 -7.217 -1.617 0.28999999
-0.73500001 -7.217 -1.617 0.28999999
-0.71200001 -7.2179999 -1.617 0.28999999
-0.68900001 -7.2160001 -1.6160001 0.28999999
-0.667 -7.2220001 -1.617 0.28999999
-0.65499997 -7.2150002 -1.615 0.28999999
-0.63300002 -7.2270002 -1.617 0.31
-0.61000001 -7.2290001 -1.617 0.31
-0.58700001 -7.223 -1.615 0.31
-0.56400001 -7.2249999 -1.615 0.28999999
-0.54100001 -7.2189999 -1.613 0.28999999
-0.51800001 -7.2150002 -1.612 0.28999999
-0.50700003 -7.2270002 -1.615 0.28999999
-0.484 -7.2210002 -1.613 0.28999999
-0.461 -7.217 -1.6109999 0.28999999
-0.43900001 -7.2280002 -1.614 0.31
-0.417 -7.2449999 -1.617 0.31
-0.39300001 -7.2280002 -1.613 0.31
-0.37099999 -7.2259998 -1.612 0.28
-0.35800001 -7.2129998 -1.609 0.28999999
-0.336 -7.223 -1.6109999 0.28999999
-0.31400001 -7.2259998 -1.612 0.28999999
-0.29100001 -7.223 -1.6109999 0.28999999
-0.26800001 -7.224 -1.6109999 0.28999999
-0.245 -7.2210002 -1.61 0.28999999
-0.234 -7.2160001 -1.609 0.28999999
-0.211 -7.2150002 -1.608 0.30000001
-0.18799999 -7.2189999 -1.609 0.30000001
-0.16599999 -7.2199998 -1.609 0.30000001
-0.14300001 -7.2220001 -1.61 0.30000001
-0.12 -7.2220001 -1.61 0.30000001
-0.097999997 -7.2129998 -1.607 0.30000001
-0.075000003 -7.2210002 -1.609 0.30000001
-0.064000003 -7.2189999 -1.609 0.28999999
-0.041000001 -7.2210002 -1.609 0.28999999
-0.017999999 -7.2220001 -1.609 0.28999999
0.0040000002 -7.21 -1.6059999 0.30000001
0.027000001 -7.2119999 -1.607 0.30000001
0.050000001 -7.2160001 -1.608 0.31
0.071999997 -7.2189999 -1.609 0.30000001
0.083999999 -7.2049999 -1.605 0.28999999
0.106 -7.2049999 -1.605 0.30000001
0.12899999 -7.2199998 -1.609 0.28999999
0.152 -7.2119999 -1.607 0.30000001
0.17399999 -7.21 -1.607 0.30000001
0.197 -7.2150002 -1.608 0.30000001
0.219 -7.1989999 -1.604 0.31
0.23100001 -7.198 -1.604 0.30000001
0.25400001 -7.211 -1.608 0.28999999
0.27599999 -7.2030001 -1.6059999 0.30000001
0.29800001 -7.1919999 -1.603 0.28999999
0.32100001 -7.2049999 -1.607 0.30000001
0.34400001 -7.1900001 -1.603 0.31
0.35600001 -7.2049999 -1.607 0.31999999
0.37900001 -7.2140002 -1.61 0.31
0.39899999 -7.177 -1.601 0.28999999
0.42199999 -7.178 -1.602 0.30000001
0.44499999 -7.1880002 -1.604 0.30000001
0.46799999 -7.1890001 -1.605 0.28999999
0.49000001 -7.1799998 -1.603 0.30000001
0.51300001 -7.184 -1.604 0.30000001
0.523 -7.164 -1.6 0.28999999
0.546 -7.1659999 -1.601 0.28999999
0.56900001 -7.1739998 -1.603 0.30000001
0.59100002 -7.1659999 -1.602 0.30000001
0.61299998 -7.1620002 -1.601 0.31
0.63700002 -7.1760001 -1.605 0.33000001
0.65799999 -7.151 -1.599 0.28999999
0.67000002 -7.1570001 -1.601 0.30000001
0.69199997 -7.1570001 -1.602 0.28999999
0.713 -7.1329999 -1.596 0.30000001
0.73699999 -7.145 -1.6 0.28999999
0.75999999 -7.1479998 -1.601 0.30000001
0.78100002 -7.1339998 -1.598 0.30000001
0.80299997 -7.1300001 -1.598 0.28999999
0.815 -7.138 -1.6 0.28999999
0.83600003 -7.1240001 -1.597 0.28999999
0.85799998 -7.112 -1.595 0.30000001
0.88300002 -7.1339998 -1.601 0.28999999
0.903 -7.112 -1.596 0.30000001
0.926 -7.1129999 -1.597 0.31
0.94999999 -7.125 -1.601 0.28999999
0.95899999 -7.1030002 -1.596 0.30000001
0.98000002 -7.092 -1.594 0.28999999
1.0039999 -7.1020002 -1.597 0.28999999
1.025 -7.0910001 -1.596 0.30000001
1.048 -7.0900002 -1.596 0.30000001
1.071 -7.0960002 -1.598 0.28999999
1.092 -7.0809999 -1.596 0.31999999
1.104 -7.085 -1.597 0.28999999
1.127 -7.0900002 -1.599 0.28999999
1.148 -7.0780001 -1.597 0.28999999
1.17 -7.0710001 -1.596 0.30000001
1.193 -7.0689998 -1.596 0.25999999
1.212 -7.0479999 -1.592 0.20999999
1.237 -7.0630002 -1.597 0.47
1.25 -7.0689998 -1.599 0.31999999
1.27 -7.0560002 -1.596 0.31999999
1.291 -7.0440001 -1.595 0.28999999
1.312 -7.0339999 -1.5930001 0.30000001
1.335 -7.0339999 -1.594 0.34
1.355 -7.02 -1.592 0.31999999
1.3789999 -7.0229998 -1.594 0.30000001
1.387 -7.006 -1.59 0.30000001
1.41 -7.007 -1.591 0.33000001
1.432 -7.0029998 -1.591 0.31999999
1.454 -6.9959998 -1.591 0.31999999
1.476 -6.994 -1.591 0.31999999
1.499 -6.9970002 -1.5930001 0.30000001
1.521 -6.9879999 -1.592 0.34999999
1.53 -6.9780002 -1.59 0.33000001
1.553 -6.9790001 -1.592 0.33000001
1.574 -6.9679999 -1.59 0.33000001
1.597 -6.9710002 -1.592 0.28999999
1.617 -6.9559999 -1.59 0.31999999
1.6390001 -6.9510002 -1.59 0.34
1.6619999 -6.9499998 -1.591 0.31999999
1.671 -6.941 -1.589 0.28999999
