# .PCD v0.7 - Point Cloud Data file format
VERSION 0.7
FIELDS x y z intensity
SIZE 4 4 4 4
TYPE F F F F
COUNT 1 1 1 1
WIDTH 1538
HEIGHT 1
VIEWPOINT 0 0 0 1 0 0 0
POINTS 1538
DATA ascii
29.410999 -19.215 0.31799999 0
29.438999 -19.167999 0.31799999 0
29.504 -19.077999 0.31799999 0
29.552 -18.978001 0.31799999 0
29.613001 -18.886 0.31799999 0
29.669001 -18.791 0.31799999 0
29.733 -18.701 0.31799999 0
29.795 -18.608999 0.31799999 0
29.816 -18.556999 0.31799999 0
29.879 -18.466999 0.31799999 0
29.941999 -18.375999 0.31799999 0
29.997999 -18.281 0.31799999 0
30.059999 -18.188999 0.31799999 0
30.122 -18.098 0.31799999 0
30.164 -17.993999 0.31799999 0
30.204 -17.954 0.31799999 0
30.264 -17.861 0.31799999 0
30.325001 -17.768999 0.31799999 0
30.370001 -17.667 0.31799999 0
30.443001 -17.582001 0.31799999 0
30.490999 -17.482 0.31799999 0
30.524 -17.437 0.31799999 0
30.584999 -17.344999 0.31799999 0
30.646 -17.253 0.31799999 0
30.697001 -17.155001 0.31799999 0
30.753 -17.059 0.31799999 0
30.827 -16.974001 0.31799999 0.13
14.589 -7.8979998 0.259 0.44
14.826 -7.9970002 0.25999999 0
31.028 -16.643 0.31799999 0
31.076 -16.542999 0.31799999 0
31.136999 -16.450001 0.31799999 0
31.195 -16.356001 0.31799999 0
31.25 -16.26 0.31799999 0
31.320999 -16.171 0.31799999 0
31.348 -16.122999 0.31799999 0
31.417999 -16.035 0.31799999 0
31.462999 -15.933 0.31799999 0
31.516001 -15.836 0.31799999 0
31.582001 -15.745 0.31799999 0
31.636999 -15.648 0.31799999 0
31.695999 -15.554 0.31799999 0
31.732 -15.51 0.31799999 0
31.795 -15.417 0.31799999 0
31.85 -15.32 0.31799999 0
31.916 -15.229 0.31799999 0
31.973 -15.133 0.31799999 0
32.028999 -15.037 0.31799999 0
32.089001 -14.942 0.31799999 0
32.125 -14.897 0.31799999 0
32.188 -14.804 0.31799999 0
32.236 -14.703 0.31799999 0
32.301998 -14.611 0.31900001 0
32.359001 -14.515 0.31900001 0
32.408001 -14.414 0.31900001 0
32.473 -14.321 0.31900001 0
32.52 -14.281 0.31900001 0
32.571999 -14.182 0.31900001 0
32.629002 -14.085 0.31900001 0
32.681999 -13.986 0.31900001 0
57.264999 -24.103001 0.403 0
55.605 -23.096001 0.39700001 0
53.928001 -22.002001 0.38999999 0
69.648003 -25.778 0.44100001 0
23.393999 -8.5150003 0.285 0.13
23.413 -8.4390001 0.285 0.49000001
23.462 -8.3730001 0.285 0
70.160004 -24.844999 0.44100001 0
70.277 -24.639 0.442 0
70.421997 -24.441 0.442 0
70.516998 -24.35 0.442 0
70.571999 -24.122 0.442 0
70.778999 -23.944 0.442 0
70.917999 -23.743 0.44299999 0
39.580002 -12.757 0.338 0
39.629002 -12.636 0.338 0
72.542999 -15.222 0.44 0
72.577003 -14.991 0.44 0
64.021004 -9.8959999 0.41100001 0.14
64.022003 -9.691 0.41100001 0
64.18 -9.5089998 0.41100001 0
53.851002 -3.6930001 0.377 0
73.170998 -2.0309999 0.43799999 0
73.111 -1.8 0.43700001 0
63.648998 -0.463 0.40700001 0.090000004
63.562 -0.26300001 0.40700001 0
63.555 -0.163 0.40700001 0
51.172001 3.507 0.127 0.28
51.148998 3.6659999 0.127 0
71.237999 7.598 0.094999999 0
41.201 5.632 0.142 0.2
41.119999 5.7519999 0.142 0.20999999
41.099998 5.881 0.142 0.27000001
41.146 6.02 0.142 0
31.606001 8.1350002 0.156 0.23999999
31.521 8.2180004 0.156 0.28999999
31.500999 8.3190002 0.156 0.37
31.493999 8.4230003 0.156 0.34
31.531 8.5389996 0.156 0
73.988998 23.740999 0.086000003 0
21.802999 9.5240002 0.17 0.51999998
21.785999 9.5979996 0.17 0.25999999
21.884001 9.8059998 0.169 0.44999999
22.030001 9.9549999 0.169 0
21.672001 10.081 0.169 0.60000002
21.497999 10.082 0.17 0
67.000999 38.169998 0.086999997 0
66.867996 38.373001 0.086999997 0
14.206 10.769 0.17900001 0.17
14.132 10.784 0.17900001 0.60000002
14.46 11.106 0.178 0.15000001
14.545 11.208 0.178 0.31999999
14.3 11.091 0.178 0.64999998
14.317 11.176 0.178 0
51.500999 41.077999 0.104 0.079999998
14.061 11.373 0.178 0.68000001
14.132 11.504 0.178 0
35.432999 30.313 0.134 0
56.794998 50.335999 0.089000002 0
56.513 50.403 0.089000002 0
56.528 50.737 0.089000002 0
56.499001 51.032001 0.089000002 0
8.4969997 8.1429996 0.18799999 0.63999999
8.4549999 8.1540003 0.18799999 0.51999998
8.3479996 8.1009998 0.18799999 0.30000001
8.2620001 8.0690002 0.189 0.27000001
8.1560001 8.0139999 0.189 0.33000001
8.0629997 7.9720001 0.189 0.17
7.9790001 7.914 0.189 0.25999999
7.8169999 7.802 0.189 0.19
7.8969998 7.9320002 0.189 0.19
7.7290001 7.8109999 0.189 0.18000001
7.6500001 7.7800002 0.19 0.1
7.5619998 7.7389998 0.19 0.18000001
7.4980001 7.7210002 0.19 0.27000001
7.4190001 7.664 0.19 0.25999999
7.335 7.625 0.19 0.11
7.0250001 7.4400001 0.191 0.73000002
6.9910002 7.4499998 0.191 0.43000001
6.9260001 7.428 0.191 0.44999999
6.8629999 7.3829999 0.191 0.25
6.7950001 7.3559999 0.191 0.25999999
6.7179999 7.3189998 0.191 0.20999999
6.6469998 7.2859998 0.191 0.27000001
6.586 7.2659998 0.191 0.25999999
6.4980001 7.2129998 0.191 0.22
6.3699999 7.138 0.192 0.52999997
6.3670001 7.1799998 0.192 0.69
6.4289999 7.296 0.191 0
39.291 47.284 0.111 0
39.049999 47.294998 0.111 0
38.786999 47.278 0.112 0
38.459999 47.181 0.112 0
38.313 47.151001 0.112 0
38.132999 47.233002 0.112 0
37.773998 47.09 0.113 0
37.541 47.102001 0.113 0
37.351002 47.166 0.113 0
37.049 47.088001 0.114 0
36.798 47.071999 0.114 0
33.542999 43.043999 0.122 0
36.477001 47.117001 0.114 0
36.116001 46.955002 0.115 0
35.895 46.972 0.115 0
35.708 47.033001 0.115 0
35.411999 46.949001 0.115 0
35.146 46.901001 0.116 0
35.034 46.904999 0.116 0
34.759998 46.845001 0.116 0
34.529999 46.841 0.116 0
34.294998 46.830002 0.117 0
34.09 46.858002 0.117 0
33.855999 46.845001 0.117 0
33.666 46.890999 0.117 0
6.3730001 8.9890003 0.189 0.27000001
6.302 8.948 0.19 0.69
6.2719998 8.9639997 0.19 0.31999999
6.2290001 8.9630003 0.19 0.47
6.1999998 8.9820004 0.19 0.38
6.1919999 9 0.19 0.43000001
6.1550002 9.0059996 0.19 0.54000002
6.1399999 9.0459995 0.19 0.38999999
6.1059999 9.0570002 0.19 0.52999997
6.085 9.0869999 0.19 0.38999999
6.052 9.1000004 0.19 0.64999998
6.1609998 9.3280001 0.189 0
6.0619998 9.2080002 0.189 0
30.429001 46.735001 0.12 0
30.259001 46.796001 0.12 0
29.988001 46.696999 0.12 0
29.768999 46.678001 0.121 0
29.589001 46.719002 0.121 0
29.440001 46.807999 0.121 0
29.233999 46.641998 0.121 0
29.013 46.615002 0.121 0
28.837999 46.66 0.121 0
28.698999 46.762001 0.121 0
28.438999 46.667999 0.122 0
28.211 46.622002 0.122 0
28.034 46.66 0.122 0
27.878 46.730999 0.122 0
27.693001 46.587002 0.123 0
27.441999 46.497002 0.123 0
27.219999 46.452999 0.123 0
27.048 46.494999 0.123 0
26.878 46.537998 0.123 0
26.674 46.521999 0.123 0
26.496 46.549999 0.123 0
26.455999 46.648998 0.123 0
26.32 46.750999 0.123 0
26.129999 46.756001 0.123 0
25.915001 46.716 0.124 0
25.738001 46.743 0.124 0
25.589001 46.82 0.124 0
25.462999 46.938999 0.124 0
25.327 46.862 0.124 0
25.125 46.84 0.124 0
24.952 46.870998 0.124 0
24.806 46.952 0.124 0
24.683001 47.076 0.124 0
24.475 47.037998 0.124 0
24.278 47.019001 0.124 0
24.194 47.036999 0.125 0
24.027 47.075001 0.125 0
23.905001 47.202 0.124 0
23.673 47.111 0.125 0
23.466999 47.069 0.125 0
23.327999 47.16 0.125 0
23.190001 47.255001 0.125 0
23.059 47.363998 0.125 0
22.931 47.287998 0.125 0
22.736 47.264 0.125 0
22.563999 47.286999 0.125 0
22.405001 47.335999 0.125 0
22.275999 47.448002 0.125 0
22.094999 47.448002 0.125 0
21.899 47.416 0.126 0
21.816999 47.436001 0.126 0
21.658001 47.481998 0.126 0
21.516001 47.564999 0.126 0
21.360001 47.618999 0.126 0
21.16 47.570999 0.126 0
20.990999 47.595001 0.126 0
20.843 47.661999 0.126 0
20.757 47.671001 0.126 0
20.591999 47.701 0.126 0
20.429001 47.735001 0.126 0
20.25 47.73 0.126 0
20.084999 47.758999 0.126 0
19.931 47.812 0.126 0
19.802999 47.926998 0.126 0
19.702 47.896999 0.126 0
19.511999 47.860001 0.126 0
19.348 47.888 0.126 0
19.188999 47.928001 0.126 0
19.056 48.032001 0.126 0
18.905001 48.091999 0.126 0
18.712999 48.044998 0.127 0
18.537001 48.040001 0.127 0
18.454 48.049 0.127 0
18.308001 48.118999 0.127 0
18.18 48.240002 0.127 0
17.997999 48.215 0.127 0
17.813999 48.182999 0.127 0
17.649 48.202999 0.127 0
17.58 48.249001 0.127 0
17.417999 48.273998 0.127 0
17.261999 48.317001 0.127 0
17.110001 48.369999 0.127 0
16.921 48.317001 0.127 0.059999999
4.4619999 12.945 0.185 0.30000001
4.5139999 13.162 0.185 0
16.375999 48.464001 0.127 0
16.209999 48.476002 0.127 0
16.045 48.487 0.127 0
15.9 48.560001 0.127 0
15.773 48.687 0.127 0
15.598 48.667999 0.127 0
15.412 48.613998 0.127 0
15.334 48.632 0.127 0
15.173 48.653999 0.12800001 0
15.033 48.743 0.127 0
14.897 48.847 0.127 0
14.706 48.769001 0.12800001 0
14.537 48.764 0.12800001 0
14.391 48.832001 0.12800001 0
14.311 48.842999 0.12800001 0.07
14.126 48.778 0.12800001 0.14
13.991 48.889999 0.12800001 0
13.827 48.895 0.12800001 0
13.67 48.924999 0.12800001 0
13.516 48.966999 0.12800001 0
13.375 49.057999 0.12800001 0
13.307 49.113998 0.12800001 0
13.128 49.060001 0.12800001 0
12.958 49.042 0.12800001 0
12.8 49.07 0.12800001 0
12.655 49.143002 0.12800001 0
12.473 49.074001 0.12800001 0
12.286 48.983002 0.12800001 0
12.1 48.893002 0.12800001 0
12.063 49.071999 0.12800001 0
11.933 49.209999 0.12800001 0
11.788 49.287998 0.12800001 0
11.662 49.450001 0.12800001 0
11.47 49.326 0.12800001 0
11.307 49.328999 0.12800001 0
11.145 49.331001 0.12800001 0
11.081 49.410999 0.12800001 0
10.949 49.550999 0.12800001 0
10.77 49.478001 0.12800001 0
10.6 49.445 0.12800001 0
10.445 49.476002 0.12800001 0
10.292 49.523998 0.12800001 0
10.143 49.588001 0.12800001 0
10.063 49.591999 0.12800001 0
9.901 49.591999 0.12800001 0
9.724 49.514999 0.12800001 0
9.533 49.362 0.12899999 0
9.4069996 49.542999 0.12800001 0
9.2329998 49.476002 0.12800001 0
9.0860004 49.554001 0.12800001 0
9.0439997 49.763 0.12800001 0
8.875 49.719002 0.12800001 0
8.7349997 49.839001 0.12800001 0
8.5810003 49.883999 0.12800001 0
8.4259996 49.922001 0.12800001 0
8.2580004 49.880001 0.12800001 0
8.099 49.890999 0.12800001 0
8.0209999 49.908001 0.12800001 0
7.8740001 49.995998 0.12800001 0
7.7270002 50.085999 0.12800001 0
7.5560002 50.014999 0.12800001 0
7.3930001 50.005001 0.12800001 0
7.2389998 50.043999 0.12800001 0
7.0869999 50.108002 0.12800001 0
6.9429998 50.229 0.12800001 0
6.8579998 50.194 0.12800001 0
6.6919999 50.153999 0.12800001 0
6.533 50.162998 0.12800001 0
6.3790002 50.210999 0.12800001 0
6.2270002 50.278 0.12800001 0
6.0770001 50.361 0.12800001 0
5.9089999 50.297001 0.12800001 0
5.8319998 50.324001 0.12800001 0
5.6760001 50.362 0.12800001 0
5.5 50.216 0.12800001 0.059999999
5.3309999 50.124001 0.12800001 0
5.1919999 50.319 0.12800001 0
5.0120001 50.122002 0.12800001 0
4.835 49.929001 0.12899999 0.079999998
4.757 49.945999 0.12899999 0
4.6030002 49.991001 0.12899999 0
4.4889998 50.493 0.12800001 0
4.335 50.563 0.12800001 0
4.164 50.429001 0.12800001 0
3.9990001 50.360001 0.12800001 0
3.8499999 50.487999 0.12800001 0
3.76 50.348 0.12800001 0
3.599 50.330002 0.12800001 0
3.438 50.292999 0.12800001 0
3.2839999 50.360001 0.12800001 0
3.145 50.691002 0.12800001 0
2.99 50.769001 0.12800001 0
2.836 50.884998 0.12800001 0.12
2.674 50.855999 0.12800001 0
2.595 50.872002 0.12800001 0
2.437 50.917999 0.127 0
2.2809999 51.007999 0.127 0
2.125 51.136002 0.127 0
1.962 51.070999 0.127 0
1.801 51.061001 0.127 0
1.64 51.046001 0.127 0.07
1.5599999 51.055 0.127 0.090000004
1.398 50.999001 0.127 0
1.24 51.087002 0.127 0
1.077 50.971001 0.127 0
0.91799998 51.051998 0.127 0
0.75999999 51.215 0.127 0.07
0.59899998 51.176998 0.127 0
0.51899999 51.313999 0.127 0
0.35800001 51.325001 0.127 0
0.197 51.321999 0.127 0
0.035999998 51.402 0.127 0
-0.126 51.425999 0.127 0
-0.28600001 51.273998 0.127 0
-0.44800001 51.387001 0.127 0
-0.528 51.287998 0.127 0
-0.69199997 51.473999 0.127 0
-0.85500002 51.563 0.127 0
-1.02 51.698002 0.126 0
-1.181 51.654999 0.126 0
-1.3430001 51.617001 0.126 0
-1.506 51.632999 0.126 0
-1.67 51.709999 0.126 0
-1.756 51.834999 0.126 0
-1.916 51.757 0.126 0
-2.079 51.766998 0.126 0
-2.244 51.807999 0.126 0
-2.405 51.763 0.126 0
-2.5710001 51.819 0.126 0
-2.7390001 51.905998 0.126 0
-2.822 51.924 0.126 0
-2.9849999 51.921001 0.126 0
-3.151 51.955002 0.126 0
-3.3210001 52.061001 0.126 0
-3.4920001 52.153999 0.125 0
-3.652 52.091 0.126 0
-3.8150001 52.069 0.126 0
-3.9000001 52.109001 0.126 0
-4.072 52.198002 0.125 0
-4.2470002 52.324001 0.125 0
-4.4060001 52.241001 0.125 0
-4.5700002 52.233002 0.125 0.1
-3.3440001 36.970001 0.149 0
-4.9099998 52.331001 0.125 0.1
-3.507 36.835999 0.149 0.16
-3.6099999 36.691002 0.149 0
-3.885 37.09 0.149 0
-5.6539998 52.296001 0.125 0
-5.7800002 51.938 0.126 0
-5.9619999 52.080002 0.125 0
-6.1339998 52.132999 0.125 0
-6.217 52.132999 0.125 0
-6.4419999 52.612 0.124 0
-6.6279998 52.751999 0.124 0
-6.7870002 52.681 0.124 0
-6.9520001 52.655998 0.124 0
-7.1259999 52.699001 0.124 0
-7.2969999 52.716 0.124 0
-7.395 52.813 0.124 0
-7.5689998 52.841 0.124 0
-7.7220001 52.734001 0.124 0
-7.8990002 52.785 0.124 0
-8.0860004 52.894001 0.124 0
-8.2770004 53.029999 0.123 0
-8.4399996 52.98 0.123 0
-8.5220003 52.959 0.123 0
-8.6940002 52.967999 0.123 0
-8.8789997 53.053001 0.123 0
-9.073 53.183998 0.123 0
-9.2370005 53.136002 0.123 0
-9.4029999 53.102001 0.123 0
-9.5839996 53.151001 0.123 0
-9.6829996 53.221001 0.123 0
-9.8640003 53.264999 0.123 0
-10.028 53.216 0.123 0
-10.206 53.243 0.122 0
-10.387 53.280998 0.122 0
-10.593 53.443001 0.122 0
-10.772 53.464001 0.122 0
-10.94 53.428001 0.122 0
-11.024 53.415001 0.122 0.11
-7.8870001 37.651001 0.147 0
-11.44 53.720001 0.121 0
-10.694 49.464001 0.12800001 0
-11.754 53.540001 0.122 0
-11.937 53.573002 0.121 0
-12.138 53.676998 0.121 0
-12.249 53.775002 0.121 0
-12.413 53.715 0.121 0
-12.585 53.691002 0.121 0
-12.767 53.708 0.121 0
-12.982 53.855999 0.121 0
-13.168 53.887001 0.121 0
-13.339 53.851002 0.121 0
-13.424 53.834 0.121 0
-13.624 53.911999 0.12 0
-13.819 53.966999 0.12 0
-13.992 53.938999 0.12 0
-14.181 53.967999 0.12 0.11
-7.0570002 26.569 0.164 0.30000001
-7.1139998 26.448 0.164 0.12
-7.1630001 26.466 0.164 0
-7.1459999 26.077 0.16500001 0
-7.158 25.804001 0.16500001 0.059999999
-7.204 25.656 0.16500001 0.11
-7.0669999 24.872 0.16599999 0.13
-7.1220002 24.771 0.167 0.51999998
-7.2340002 24.864 0.16599999 0.2
-7.3060002 24.82 0.16599999 0.15000001
-7.4169998 25.054001 0.16599999 0
-7.3969998 24.701 0.167 0
-7.4219999 24.503 0.167 0
-7.448 24.315001 0.167 0.050000001
-7.5549998 24.121 0.167 0
-7.5440001 23.825001 0.168 0
-7.5419998 23.691 0.168 0
-7.572 23.528 0.168 0
-7.5999999 23.364 0.168 0
-7.6199999 23.177999 0.169 0.07
-7.6719999 23.093 0.169 0
-7.7010002 22.940001 0.169 0
-7.7389998 22.816 0.169 0
-18.763 54.917999 0.117 0
-18.945999 54.887001 0.117 0
-19.136 54.877998 0.116 0
-19.396999 55.07 0.116 0
-19.603001 55.101002 0.116 0
-19.77 55.022999 0.116 0
-19.962 55.013 0.116 0
-20.136999 55.226002 0.115 0
-20.334 55.226002 0.115 0
-20.487 55.105 0.115 0
-20.698999 55.146 0.115 0
-20.927999 55.228001 0.115 0
-21.094999 55.145 0.115 0
-21.337 55.256001 0.115 0
-21.535999 55.254002 0.115 0
-21.712 55.449001 0.114 0
-21.950001 55.540001 0.114 0
-22.125999 55.477001 0.114 0
-22.320999 55.457001 0.114 0
-22.580999 55.599998 0.113 0
-22.742001 55.494999 0.114 0
-22.832001 55.220001 0.114 0
-22.889 55.112 0.114 0
-23.336 55.693001 0.113 0
-23.579 55.779999 0.113 0
-23.774 55.752998 0.113 0
-24 55.796001 0.112 0
-22.361 51.542999 0.119 0
-24.466 55.909 0.112 0
-24.570999 55.909 0.112 0
-24.806 55.965 0.112 0
-25.089001 56.127998 0.111 0
-25.285 56.091 0.111 0
-25.476 56.043999 0.111 0
-25.756001 56.191002 0.111 0
-25.997999 56.250999 0.11 0
-26.179001 56.178001 0.11 0
-26.285 56.174999 0.11 0
-26.552 56.285999 0.11 0
-26.822001 56.396999 0.11 0
-27.004 56.324001 0.11 0
-27.247 56.375 0.109 0
-27.556 56.558998 0.109 0
-27.747 56.500999 0.109 0
-27.878 56.542 0.109 0
-28.167 56.679001 0.108 0
-28.395 56.691002 0.108 0
-28.591 56.634998 0.108 0
-28.823999 56.653999 0.108 0
-29.098 56.750999 0.108 0
-29.332001 56.768002 0.107 0
-29.473 56.820999 0.107 0
-29.768999 56.953999 0.107 0
-30.002001 56.962002 0.107 0
-30.216999 56.935001 0.107 0
-30.415001 56.876999 0.107 0
-30.764999 57.098 0.106 0
-30.987 57.080002 0.106 0
-31.160999 57.186001 0.106 0
-31.492001 57.363998 0.105 0
-31.68 57.278999 0.105 0
-31.903999 57.257999 0.105 0
-32.206001 57.375 0.105 0
-32.466 57.415001 0.104 0
-32.675999 57.365002 0.104 0
-32.936001 57.401001 0.104 0
-33.176998 57.611 0.103 0
-23.794001 41.035 0.133 0
-23.924999 40.963001 0.133 0
-24.017 40.826 0.133 0
-24.292 40.998001 0.133 0
-24.162001 40.488998 0.133 0
-34.717999 57.743 0.102 0
-34.875 57.798 0.102 0
-35.160999 57.859001 0.102 0
-35.449001 57.922001 0.101 0
-35.708 57.936001 0.101 0
-35.986 57.978001 0.101 0
-33.466999 53.546001 0.109 0
-36.577999 58.112999 0.1 0
-36.728001 58.148998 0.1 0
-37.049 58.250999 0.1 0
-37.319 58.27 0.098999999 0
-37.592999 58.293999 0.098999999 0
-37.901001 58.368 0.098999999 0
-38.161999 58.368 0.097999997 0
-38.416 58.355 0.097999997 0
-38.675999 58.549 0.097999997 0
-38.952999 58.567001 0.097000003 0
-39.207001 58.549 0.097000003 0
-39.507 58.598 0.097000003 0
-39.851002 58.709 0.097000003 0
-40.138 58.734001 0.096000001 0
-40.421001 58.750999 0.096000001 0
-40.777 58.872002 0.096000001 0
-40.948002 58.921001 0.094999999 0
-41.235001 58.938 0.094999999 0
-41.613998 59.082001 0.094999999 0
-41.858002 59.035 0.093999997 0
-42.194 59.112999 0.093999997 0
-42.516998 59.171001 0.093999997 0
-42.796001 59.167 0.093000002 0
-43.096001 59.384998 0.093000002 0
-43.352001 59.344002 0.093000002 0
-43.643002 59.349998 0.092 0
-43.987999 59.428001 0.092 0
-44.286999 59.439999 0.092 0
-44.651001 59.536999 0.090999998 0
-44.93 59.518002 0.090999998 0
-45.299 59.617001 0.090000004 0
-45.529999 59.724998 0.090000004 0
-45.853001 59.757999 0.090000004 0
-46.231998 59.862 0.089000002 0
-46.564999 59.903 0.089000002 0
-46.905998 59.951 0.089000002 0
-47.292999 60.056999 0.088 0
-47.575001 60.025002 0.088 0
-47.903 60.244999 0.086999997 0
-48.193001 60.220001 0.086999997 0
-34.660999 43.043999 0.121 0
-48.917 60.344002 0.086000003 0
-35.133999 43.075001 0.12 0
-35.053001 42.702 0.121 0
-49.868 60.537998 0.085000001 0
-50.195999 60.547001 0.085000001 0
-50.563999 60.602001 0.083999999 0
-50.847 60.554001 0.083999999 0
-51.393002 60.814999 0.082999997 0
-51.733002 60.827999 0.082999997 0
-26.01 29.365999 0.146 0.20999999
-26.063999 29.243 0.146 0.20999999
-26.195999 29.205 0.146 0
-27.479 29.964001 0.14300001 0
-45.688999 45.030998 0.107 0
-45.991001 44.903 0.107 0
-46.027 44.657001 0.107 0
-11.144 10.083 0.183 0.50999999
-11.148 10.055 0.183 0.54000002
-11.2 10.039 0.183 0
-45.994999 39.583 0.112 0
-46.748001 40.103001 0.111 0.079999998
-36.883999 31.448 0.131 0.18000001
-36.970001 31.322001 0.131 0
-15.692 13.146 0.175 0.20999999
-15.715 13.081 0.175 0.43000001
-15.983 13.218 0.17399999 0
-48.686001 40.069 0.109 0
-49.075001 40.131001 0.108 0
-17.646999 13.506 0.17200001 0.18000001
-17.674 13.438 0.17200001 0.38
-17.583 13.326 0.17200001 0
-26.158001 19.68 0.156 0
-26.208 19.59 0.156 0.07
-26.27 19.507 0.156 0.11
-26.257999 19.371 0.156 0
-26.364 19.322001 0.156 0
-26.41 19.228001 0.156 0
-26.471001 19.145 0.156 0
-19.605 13.862 0.169 0.15000001
-19.583 13.754 0.169 0.51999998
-19.712999 13.753 0.169 0
-21.525999 14.129 0.167 0.51999998
-21.649 14.112 0.16599999 0.11
-30.834 19.948999 0.15000001 0.090000004
-30.860001 19.827999 0.15000001 0.14
-30.878 19.702999 0.15000001 0.090000004
-30.902 19.582001 0.15000001 0
-30.910999 19.52 0.15000001 0
-31.125 19.518 0.15000001 0
-31.424 19.568001 0.149 0
-23.075001 13.978 0.16500001 0.23
-23.334999 14.085 0.164 0
-23.923 14.134 0.163 0.28999999
-24.014 14.086 0.163 0.27000001
-24.038 13.998 0.163 0.27000001
-24.049999 13.905 0.163 0.27000001
-24.046 13.852 0.163 0.25999999
-23.186001 13.261 0.16500001 0.19
-23.167 13.154 0.16500001 0.34
-23.173 13.061 0.16500001 0.30000001
-23.205 12.983 0.16500001 0.34999999
-23.208 12.889 0.16500001 0.30000001
-23.233999 12.808 0.16500001 0.36000001
-23.243999 12.719 0.16500001 0.30000001
-23.236 12.667 0.16500001 0.36000001
-23.247999 12.579 0.16599999 0.31
-23.278 12.501 0.16599999 0.36000001
-23.296 12.417 0.16599999 0.30000001
-23.319 12.335 0.16599999 0.36000001
-23.329 12.247 0.16599999 0.30000001
-23.351999 12.165 0.16599999 0.36000001
-23.344 12.115 0.16599999 0.30000001
-23.364 12.032 0.16599999 0.38
-23.379 11.947 0.16599999 0.31
-23.391001 11.861 0.16599999 0.36000001
-23.402 11.774 0.16599999 0.30000001
-23.426001 11.694 0.16599999 0.34999999
-23.438999 11.609 0.16599999 0.31
-23.447001 11.567 0.16599999 0.36000001
-23.461 11.482 0.16599999 0.30000001
-23.472 11.396 0.16599999 0.37
-23.488001 11.313 0.16599999 0.30000001
-23.509001 11.232 0.16599999 0.31999999
-23.518999 11.147 0.16599999 0.31999999
-23.548 11.07 0.16599999 0.37
-23.540001 11.021 0.16599999 0.31999999
-23.556999 10.939 0.16599999 0.31999999
-23.573 10.856 0.16599999 0.31999999
-23.576 10.768 0.16599999 0.31999999
-23.604 10.692 0.16599999 0.33000001
-23.625 10.612 0.16599999 0.38
-23.638 10.528 0.16599999 0.31
-23.636 10.483 0.16599999 0.31999999
-23.656 10.403 0.16599999 0.31999999
-23.676001 10.323 0.16599999 0.33000001
-23.677 10.235 0.167 0.34
-23.702999 10.159 0.167 0.31
-23.719999 10.078 0.167 0.40000001
-23.728001 9.993 0.167 0.31999999
-23.747999 9.9139996 0.167 0.38
-23.743 9.868 0.167 0.31999999
-23.752001 9.7849998 0.167 0.33000001
-23.778999 9.7080002 0.167 0.34
-23.787001 9.625 0.167 0.33000001
-23.802 9.5439997 0.167 0.34
-23.825001 9.4659996 0.167 0.30000001
-23.843 9.3870001 0.167 0.40000001
-23.847 9.3450003 0.167 0.28
-23.858999 9.2639999 0.167 0.33000001
-23.864 9.1789999 0.167 0.34999999
-23.896 9.1059999 0.167 0.33000001
-23.902 9.0220003 0.167 0.34
-23.912001 8.9399996 0.167 0.34999999
-23.929001 8.8610001 0.167 0.34
-23.937 8.8210001 0.167 0.34999999
-23.951 8.7410002 0.167 0.34999999
-23.975 8.6639996 0.167 0.34999999
-23.981001 8.5819998 0.167 0.34
-24.002001 8.5039997 0.167 0.34999999
-24.014 8.4230003 0.167 0.34999999
-24.018 8.382 0.167 0.31999999
-24.028999 8.302 0.167 0.25999999
-18.056 6.1820002 0.177 0.40000001
-18.827 6.3790002 0.176 0.51999998
-18.733 6.2810001 0.176 0.28
-18.544001 6.1529999 0.176 0.25999999
-18.302999 6.0100002 0.177 0.27000001
-18.285999 5.941 0.177 0.47
-18.521999 5.9850001 0.176 0.23
-18.878 6.0339999 0.176 0.36000001
-18.802999 5.9450002 0.176 0.23999999
-17.804001 5.5689998 0.178 0.40000001
-17.756001 5.493 0.178 0.38999999
-17.702999 5.4159999 0.178 0.46000001
-17.591 5.322 0.178 0.31
-17.532 5.2740002 0.178 0.43000001
-17.664 5.2529998 0.178 0.31
-17.642 5.1859999 0.178 0.61000001
-17.681 5.138 0.178 0.25
-24.274 6.961 0.167 0.37
-24.294001 6.8839998 0.167 0.25
-17.652 4.9489999 0.178 0.40000001
-17.548 4.8899999 0.178 0.38
-17.566999 4.836 0.178 0.40000001
-17.657 4.8010001 0.178 0.31999999
-17.625999 4.7340002 0.178 0.58999997
-17.656 4.6820002 0.178 0.41
-17.764 4.651 0.178 0.25
-17.648001 4.5619998 0.178 0.28
-17.736 4.5250001 0.178 0.25
-17.784 4.507 0.178 0.58999997
-24.434 6.1009998 0.167 0.28
-17.940001 4.427 0.178 0.31999999
-17.882 4.3530002 0.178 0.41999999
-17.83 4.2810001 0.178 0.36000001
-17.783001 4.211 0.178 0.47999999
-17.788 4.1529999 0.178 0.41999999
-24.507 5.671 0.167 0.33000001
-24.525999 5.5949998 0.167 0.38
-24.540001 5.5170002 0.167 0.36000001
-24.551001 5.4390001 0.168 0.34
-24.568001 5.3610001 0.168 0.34
-24.575001 5.2820001 0.168 0.36000001
-24.586 5.204 0.168 0.34999999
-24.601999 5.1669998 0.168 0.34
-24.618 5.0890002 0.168 0.34999999
-24.629999 5.0110002 0.168 0.34999999
-24.642 4.9330001 0.168 0.33000001
-24.649 4.8540001 0.168 0.34
-24.667999 4.777 0.168 0.33000001
-24.683001 4.6999998 0.168 0.33000001
-24.686001 4.6599998 0.168 0.34
-24.701 4.5830002 0.168 0.33000001
-24.712999 4.5050001 0.168 0.34
-24.743 4.4299998 0.168 0.34
-24.750999 4.3509998 0.168 0.31999999
-24.763 4.2729998 0.168 0.38
-24.775999 4.1950002 0.168 0.28
-24.792 4.158 0.168 0.33000001
-24.784 4.0760002 0.168 0.33000001
-24.802 3.9990001 0.168 0.34
-24.834 3.925 0.168 0.34
-24.837 3.845 0.168 0.38
-24.857 3.7679999 0.168 0.31999999
-24.865999 3.6900001 0.168 0.34
-24.868 3.6099999 0.168 0.33000001
-24.889 3.573 0.168 0.31999999
-24.902 3.4949999 0.168 0.33000001
-24.915001 3.4170001 0.168 0.33000001
-24.926001 3.339 0.168 0.33000001
-24.950001 3.263 0.167 0.34
-24.950001 3.1830001 0.167 0.33000001
-24.964001 3.105 0.167 0.33000001
-24.985001 3.0680001 0.167 0.33000001
-24.982 2.9879999 0.167 0.31999999
-24.993999 2.9100001 0.167 0.31999999
-25.017 2.8329999 0.167 0.38
-25.021 2.7539999 0.167 0.20999999
-23.162001 2.477 0.17 0.36000001
-23.142 2.402 0.17 0.38
-23.164 2.3670001 0.17 0.54000002
-24.987 2.4719999 0.168 0.25
-25.094 2.4030001 0.167 0.36000001
-25.105 2.325 0.167 0.31
-25.122 2.247 0.167 0.38999999
-25.105 2.1659999 0.167 0.30000001
-25.146 2.089 0.167 0.34
-25.160999 2.0510001 0.167 0.30000001
-25.195 1.974 0.167 0.44999999
-22.351 1.684 0.17200001 0.2
-24.190001 1.743 0.169 0.36000001
-22.242001 1.535 0.17200001 0.27000001
-25.243999 1.659 0.167 0.43000001
-25.259001 1.58 0.167 0.33000001
-22.368999 1.332 0.17200001 0.25999999
-25.257999 1.461 0.167 0.33000001
-25.278999 1.382 0.167 0.33000001
-25.289 1.303 0.167 0.34
-25.297001 1.224 0.167 0.34
-25.311001 1.145 0.167 0.31999999
-25.332001 1.066 0.167 0.34
-25.349001 0.98699999 0.167 0.33000001
-25.361 0.94800001 0.167 0.34
-25.378 0.86799997 0.167 0.31999999
-25.374001 0.78799999 0.167 0.31999999
-25.399 0.70899999 0.167 0.33000001
-25.409 0.63 0.167 0.31999999
-25.427 0.55000001 0.167 0.33000001
-25.444 0.47099999 0.167 0.33000001
-25.466999 0.43099999 0.167 0.38
-25.705999 0.354 0.167 0
-25.541 0.27200001 0.167 0.039999999
-26.672001 0.199 0.16500001 0.079999998
-26.681999 0.115 0.16500001 0.13
-26.542 0.030999999 0.16500001 0.28999999
-26.562 -0.052000001 0.16500001 0.28999999
-26.568001 -0.093999997 0.16500001 0.25999999
-26.576 -0.178 0.16500001 0.19
-26.089001 -0.25600001 0.16599999 0.37
-26.087999 -0.338 0.16599999 0.30000001
-26.110001 -0.37900001 0.16599999 0.27000001
-26.416 -0.46700001 0.16599999 0.19
-27.569 -0.57499999 0.164 0.16
-27.351 -0.65600002 0.164 0.30000001
-27.183001 -0.73799998 0.164 0.22
-27.181999 -0.82300001 0.164 0.28999999
-27.205 -0.90899998 0.164 0.27000001
-27.194 -0.95200002 0.164 0.20999999
-27.157 -1.036 0.164 0.31
-26.311001 -1.168 0.16599999 0.63
-26.316999 -1.251 0.16599999 0.34
-31.41 -1.598 0.15800001 0.15000001
-31.507 -1.702 0.15800001 0.14
-31.110001 -1.729 0.15800001 0.23
-30.795 -1.808 0.15899999 0.12
-26.714001 -1.649 0.16500001 0.19
-26.605 -1.727 0.16500001 0.16
-26.618999 -1.812 0.16500001 0.28999999
-26.306 -1.873 0.16599999 0.28
-25.577999 -1.901 0.167 0.25999999
-25.594 -1.983 0.167 0.19
-25.403 -2.0079999 0.167 0.23
-25.525999 -2.099 0.167 0.34
-26.049999 -2.2249999 0.16599999 0.14
-25.284 -2.2390001 0.167 0.36000001
-30.639 -2.816 0.15899999 0.20999999
-24.261999 -2.3010001 0.169 0.12
-24.211 -2.3729999 0.169 0.17
-25.625 -2.635 0.167 0.19
-25.4 -2.6919999 0.167 0.11
-25.429001 -2.776 0.167 0.31999999
-25.632999 -2.8800001 0.167 0.11
-24.923 -2.8789999 0.168 0.31999999
-30.948 -3.6800001 0.15800001 0.16
-24.784 -3.0599999 0.168 0.54000002
-24.462999 -3.098 0.168 0.25
-21.42 -2.8469999 0.17299999 0.36000001
-21.395 -2.9119999 0.17299999 0.2
-21.362 -2.9760001 0.17299999 0.50999999
-21.360001 -3.0090001 0.17299999 0.47
-21.393999 -3.0829999 0.17299999 0.25999999
-23.857 -3.517 0.169 0.41999999
-23.982 -3.6129999 0.169 0.43000001
-24.077 -3.7049999 0.169 0.20999999
-23.745001 -3.73 0.169 0.34
-23.795 -3.8139999 0.169 0.31999999
-23.785 -3.8889999 0.169 0.36000001
-24.134001 -3.9860001 0.169 0.23999999
-23.969 -4.0359998 0.169 0.36000001
-24.082001 -4.1329999 0.169 0.16
-24.101 -4.2140002 0.169 0.28999999
-20.153999 -3.585 0.175 0.20999999
-24.076 -4.3660002 0.169 0.19
-23.872999 -4.4060001 0.169 0.5
-23.742001 -4.421 0.169 0.25
-23.728001 -4.4949999 0.169 0.22
-24.799999 -4.7800002 0.167 0.51999998
-24.235001 -4.75 0.168 0.12
-23.754 -4.7319999 0.169 0.31
-23.641001 -4.7870002 0.169 0.34
-35.787998 -7.3779998 0.15000001 0.15000001
-23.618 -4.8979998 0.169 0.34999999
-35.924999 -7.5830002 0.15000001 0.14
-24.605 -5.2659998 0.167 0.38999999
-23.801001 -5.171 0.169 0.22
-24.226 -5.3439999 0.168 0.28
-24.504 -5.4860001 0.168 0.17
-24.372999 -5.5370002 0.168 0.14
-19.632 -4.487 0.175 0.57999998
-24.386 -5.6609998 0.168 0.19
-19.304001 -4.54 0.176 0.30000001
-24.632 -5.882 0.167 0.16
-19.573999 -4.7340002 0.175 0.52999997
-19.639 -4.8150001 0.175 0.28999999
-24.177999 -6.0139999 0.168 0.22
-23.938999 -5.9949999 0.168 0.51999998
-24.039 -6.0999999 0.168 0.15000001
-23.919001 -6.1500001 0.168 0.37
-24.632999 -6.4169998 0.167 0.28
-24.427 -6.4450002 0.167 0.28999999
-24.221001 -6.4720001 0.168 0.36000001
-24.436001 -6.612 0.167 0.2
-24.141001 -6.6129999 0.168 0.27000001
-23.754999 -6.5469999 0.168 0.23
-23.854 -6.6550002 0.168 0.57999998
-27.08 -7.651 0.163 0.23
-25.215 -7.2069998 0.16599999 0.23999999
-24.931 -7.211 0.16599999 0.30000001
-25.069 -7.336 0.16599999 0.20999999
-25.438999 -7.5320001 0.16500001 0.2
-25.235001 -7.5149999 0.16599999 0.19
-25.436001 -7.6620002 0.16500001 0.13
-25.066999 -7.6360002 0.16599999 0.30000001
-24.882999 -7.665 0.16599999 0.2
-25.173 -7.842 0.16599999 0.38999999
-27.813 -8.7629995 0.161 0.23
-25.431999 -8.0979996 0.16500001 0.13
-25.200001 -8.0679998 0.16500001 0.38999999
-25.393999 -8.2180004 0.16500001 0.25999999
-26.129999 -8.5480003 0.164 0.28999999
-28.098 -9.2919998 0.161 0.17
-25.457001 -8.5050001 0.16500001 0.2
-25.511999 -8.6120005 0.16500001 0.31999999
-25.469999 -8.6870003 0.16500001 0.19
-36.715 -12.599 0.146 0.23
-36.73 -12.734 0.146 0.2
-36.742001 -12.868 0.146 0.22
-36.744999 -12.998 0.146 0.23
-34.844002 -12.448 0.149 0.23999999
-34.805 -12.557 0.149 0
-36.721001 -13.38 0.146 0.12
-34.525002 -12.64 0.15000001 0.17
-34.709999 -12.832 0.149 0.090000004
-34.502998 -12.879 0.149 0.18000001
-34.606998 -13.041 0.149 0
-34.793999 -13.237 0.149 0.1
-34.491001 -13.246 0.149 0
-34.736 -13.465 0.149 0.07
-34.630001 -13.55 0.149 0.13
-34.525002 -13.571 0.149 0
-34.43 -13.659 0.149 0
-34.686001 -13.887 0.149 0.12
-37.067001 -14.977 0.145 0.22
-37.07 -15.114 0.14399999 0.19
-37.089001 -15.258 0.14399999 0.22
-37.105 -15.401 0.14399999 0.2
-37.148998 -15.488 0.14399999 0.20999999
-37.169998 -15.634 0.14399999 0.2
-37.193001 -15.781 0.14399999 0.20999999
-37.202 -15.923 0.14399999 0.19
-37.234001 -16.076 0.14399999 0.20999999
-37.238998 -16.216999 0.14399999 0.18000001
-37.261002 -16.365999 0.14300001 0.30000001
-37.304001 -16.455 0.14300001 0.20999999
-37.334999 -16.608999 0.14300001 0.18000001
-37.341 -16.752001 0.14300001 0.31999999
-37.348 -16.896999 0.14300001 0.16
-25.666 -11.7 0.163 0.34
-25.573999 -11.755 0.163 0.27000001
-25.566 -11.849 0.163 0.28999999
-25.740999 -11.98 0.162 0.25999999
-25.539 -11.983 0.163 0.27000001
-25.903999 -12.254 0.162 0.36000001
-25.950001 -12.376 0.162 0.37
-26.290001 -12.64 0.161 0.22
-26.257 -12.726 0.161 0.30000001
-26.233 -12.816 0.161 0.38
-26.471001 -12.985 0.161 0.31999999
-26.405001 -13.055 0.161 0.20999999
-27.096001 -13.504 0.16 0.28999999
-25.476999 -12.895 0.162 0.36000001
-25.361 -12.937 0.162 0.34
-25.271 -12.991 0.162 0.25999999
-25.113001 -13.01 0.163 0.30000001
-24.962999 -12.982 0.163 0.37
-25.466999 -13.346 0.162 0.20999999
-25.503 -13.467 0.162 0.34
-25.531 -13.585 0.162 0.23
-25.513 -13.679 0.162 0.43000001
-25.665001 -13.864 0.161 0.28
-25.535 -13.898 0.161 0.23
-25.358999 -13.854 0.162 0.31999999
-25.625999 -14.104 0.161 0.31999999
-25.452999 -14.114 0.161 0.18000001
-25.149 -14.048 0.162 0.19
-25.176001 -14.167 0.162 0.33000001
-25.086 -14.221 0.162 0.11
-25.639 -14.641 0.161 0
-36.715 -21.056 0.141 0
-35.646999 -20.591 0.14300001 0.13
-35.506001 -20.659 0.14300001 0.12
-35.578999 -20.851 0.14300001 0
-35.687 -21.066 0.142 0
-35.681 -21.214001 0.142 0
-36.028999 -21.573999 0.141 0.13
-38.344002 -23.045 0.13699999 0.090000004
-38.373001 -23.226 0.13699999 0.15000001
-38.403999 -23.41 0.13699999 0.16
-38.411999 -23.580999 0.13699999 0.1
-38.432999 -23.761 0.13600001 0.15000001
-38.444 -23.934999 0.13600001 0.1
-38.477001 -24.124001 0.13600001 0.15000001
-38.530998 -24.242001 0.13600001 0.1
-38.512001 -24.399 0.13600001 0.079999998
-38.533001 -24.583 0.13600001 0.079999998
-38.566002 -24.775 0.13500001 0.15000001
-38.620998 -24.982 0.13500001 0.23
-38.640999 -25.167999 0.13500001 0.12
-31.228001 -20.473 0.149 0
-31.204 -20.528 0.149 0.07
-38.771999 -25.688999 0.134 0.14
-38.785999 -25.874001 0.134 0.090000004
-38.798 -26.058001 0.134 0.15000001
-38.821999 -26.252001 0.134 0.1
-38.855999 -26.454 0.134 0.15000001
-38.875 -26.646 0.133 0.090000004
-38.946999 -26.785 0.133 0
-38.039001 -26.336 0.13500001 0.079999998
-37.845001 -26.378 0.13500001 0.16
-34.215 -24.004999 0.142 0.15000001
-34.014 -24.024 0.142 0.13
-34.122002 -24.261999 0.142 0.16
-34.096001 -24.405001 0.142 0
-34.127998 -24.59 0.141 0.11
-33.813 -24.443001 0.142 0.28
-33.723 -24.540001 0.142 0.19
-33.683998 -24.674 0.142 0.17
-33.700001 -24.849001 0.142 0.13
-34.618 -25.695 0.14 0.16
-34.546001 -25.809999 0.14 0
-34.547001 -25.981001 0.139 0.07
-36.289001 -27.382 0.13600001 0.19
-36.055 -27.382999 0.13600001 0.25
-35.916 -27.455999 0.13600001 0.25999999
-35.825001 -27.565001 0.13600001 0.27000001
-35.748001 -27.684999 0.13600001 0.11
-35.638 -27.780001 0.13600001 0.15000001
-35.521 -27.868 0.13699999 0.12
-34.036999 -26.789 0.139 0.18000001
-33.783001 -26.761 0.14 0.25
-33.653999 -26.830999 0.14 0.27000001
-33.479 -26.864 0.14 0.27000001
-33.511002 -27.063 0.14 0
-35.312 -28.704 0.13600001 0.13
-35.262001 -28.847 0.13600001 0.17
-35.535999 -29.166 0.13500001 0.20999999
-35.158001 -29.040001 0.13600001 0.25999999
-35.116001 -29.191 0.13600001 0.19
-35.237 -29.48 0.13500001 0.16
-35.179001 -29.620001 0.13500001 0.17
-35.384998 -29.983999 0.13500001 0.17
-35.455002 -30.235001 0.134 0.18000001
-35.761002 -30.594 0.134 0.090000004
-36.012001 -31.004999 0.133 0.14
-36.182999 -31.351999 0.132 0.1
-36.276001 -31.632 0.132 0
-36.312 -31.865 0.132 0
-47.474998 -41.936001 0.108 0.050000001
-47.251999 -42.004002 0.109 0.090000004
-47.075001 -41.98 0.109 0
-46.831001 -42.027 0.109 0.12
-46.583 -42.07 0.109 0.1
-46.346001 -42.119999 0.109 0.15000001
-46.094002 -42.155998 0.11 0.1
-45.858002 -42.206001 0.11 0.16
-45.620998 -42.252998 0.11 0.16
-45.386002 -42.300999 0.11 0.16
-45.209 -42.268002 0.111 0.16
-44.987 -42.327 0.111 0.16
-44.743 -42.362999 0.111 0.16
-44.506001 -42.403999 0.111 0.16
-44.273998 -42.450001 0.111 0.16
-44.049999 -42.500999 0.112 0.090000004
-43.884998 -42.608002 0.112 0.079999998
-43.73 -42.591999 0.112 0.15000001
-43.492001 -42.626999 0.112 0.1
-43.271 -42.678001 0.112 0.15000001
-42.974998 -42.653 0.113 0.17
-42.740002 -42.687 0.113 0.16
-43.370998 -43.866001 0.111 0.15000001
-43.278999 -43.910999 0.111 0.61000001
-44.014 -44.938999 0.109 0.43000001
-44.632999 -46.147999 0.107 0.47
-45.298 -47.131001 0.105 0
-44.442001 -46.530998 0.107 0
-44.888 -47.296001 0.105 0
-45.446999 -48.036999 0.104 0
-46.637001 -50.235001 0.1 0
-47.740002 -51.749001 0.097000003 0
-47.766998 -52.106998 0.097000003 0
-49.063999 -53.861 0.093999997 0
-49.762001 -54.799999 0.092 0
-50.412998 -55.869999 0.090000004 0
-50.946999 -56.820999 0.088 0
-50.955002 -57.188999 0.088 0
-5.355 -6.1869998 0.19400001 0.23
-5.336 -6.2059999 0.19400001 0.22
-5.3099999 -6.2150002 0.19400001 0.56999999
-5.296 -6.2379999 0.19400001 0.44999999
-5.289 -6.2690001 0.19400001 0
-20.907 -27.076 0.153 0.38999999
-20.822001 -27.141001 0.153 0
-28.624001 -39.862 0.13 0.11
-28.509001 -39.966 0.13 0
-38.742001 -56.363998 0.101 0
-38.222 -55.983002 0.101 0
-34.155998 -58.726002 0.101 0
-33.960999 -58.816002 0.101 0.13
-24.08 -41.992001 0.131 0.16
-23.952 -42.075001 0.131 0.36000001
-23.813 -42.137001 0.131 0
-36.66 -65.378998 0.090000004 0
-36.595001 -65.502998 0.090000004 0
-36.219002 -65.311996 0.090999998 0
-16.378 -30.172001 0.153 0
-10.107 -18.739 0.17299999 0
-9.4519997 -17.653 0.175 0.12
-8.882 -16.711 0.177 0.090000004
-8.3730001 -15.81 0.17900001 0.14
-7.9169998 -15.062 0.18000001 0.28999999
-7.5029998 -14.381 0.18099999 0.2
-7.1240001 -13.757 0.182 0.18000001
-6.7810001 -13.194 0.183 0.33000001
-6.4450002 -12.636 0.184 0.19
-6.1620002 -12.172 0.185 0.38
-5.9120002 -11.722 0.186 0.20999999
-5.6350002 -11.259 0.18700001 0.23
-5.5339999 -11.142 0.18700001 0.31
-5.5050001 -11.172 0.18700001 0.31
-5.4640002 -11.178 0.18700001 0.30000001
-5.4289999 -11.196 0.18700001 0.28999999
-5.402 -11.229 0.18700001 0.30000001
-5.3779998 -11.225 0.18700001 0.30000001
-5.3499999 -11.258 0.18700001 0.28999999
-5.3179998 -11.282 0.18700001 0.28999999
-5.2800002 -11.293 0.18700001 0.30000001
-5.243 -11.306 0.18700001 0.30000001
-5.2160001 -11.34 0.18700001 0.28999999
-5.1750002 -11.346 0.18700001 0.31
-5.1630001 -11.365 0.18700001 0.31
-5.1290002 -11.387 0.18700001 0.31
-5.0939999 -11.403 0.18700001 0.31
-5.0599999 -11.424 0.18700001 0.31
-5.027 -11.445 0.18700001 0.30000001
-4.987 -11.454 0.18700001 0.31
-4.9549999 -11.479 0.18700001 0.31
-4.9400001 -11.492 0.18700001 0.28
-4.9070001 -11.515 0.18700001 0.28999999
-4.8740001 -11.537 0.18700001 0.31
-4.8390002 -11.556 0.18700001 0.31
-4.803 -11.572 0.18700001 0.31
-4.7649999 -11.583 0.18700001 0.28
-4.737 -11.62 0.18700001 0.31999999
-4.717 -11.624 0.18700001 0.30000001
-4.6789999 -11.635 0.18700001 0.28999999
-4.6469998 -11.661 0.18700001 0.28999999
-4.6090002 -11.671 0.18700001 0.28999999
-4.5819998 -11.71 0.18700001 0.31
-4.5430002 -11.719 0.18700001 0.28
-4.5079999 -11.737 0.18700001 0.28999999
-4.4910002 -11.749 0.18700001 0.28999999
-4.46 -11.778 0.18700001 0.28999999
-4.4260001 -11.8 0.18700001 0.31999999
-4.3909998 -11.819 0.18700001 0.28
-4.3540001 -11.833 0.18700001 0.30000001
-4.322 -11.862 0.18700001 0.28999999
-4.2870002 -11.883 0.18700001 0.30000001
-4.2690001 -11.89 0.18700001 0.28999999
-4.2309999 -11.903 0.18700001 0.30000001
-4.197 -11.926 0.18700001 0.28999999
-4.1609998 -11.942 0.18700001 0.28999999
-4.131 -11.978 0.18700001 0.28999999
-4.0949998 -11.995 0.18700001 0.30000001
-4.0599999 -12.017 0.18700001 0.30000001
-4.0440001 -12.031 0.18700001 0.30000001
-4.007 -12.048 0.18700001 0.30000001
-3.974 -12.073 0.18700001 0.28999999
-3.9360001 -12.088 0.18700001 0.28999999
-3.901 -12.11 0.18700001 0.28999999
-3.868 -12.135 0.18700001 0.28999999
-3.8310001 -12.153 0.18700001 0.30000001
-3.8150001 -12.168 0.18700001 0.30000001
-3.779 -12.188 0.18700001 0.28999999
-3.743 -12.206 0.18700001 0.28999999
-3.71 -12.235 0.18700001 0.30000001
-3.675 -12.258 0.18700001 0.31999999
-3.638 -12.275 0.18700001 0.31
-3.602 -12.296 0.18700001 0.28999999
-3.586 -12.313 0.18700001 0.30000001
-3.5480001 -12.328 0.18700001 0.30000001
-3.513 -12.353 0.18700001 0.28999999
-3.477 -12.373 0.18700001 0.30000001
-3.438 -12.382 0.18700001 0.30000001
-3.404 -12.41 0.18700001 0.30000001
-3.369 -12.436 0.18700001 0.30000001
-3.355 -12.463 0.186 0.31999999
-3.316 -12.475 0.186 0.28999999
-3.2809999 -12.501 0.186 0.28999999
-3.2460001 -12.527 0.186 0.31999999
-3.204 -12.529 0.186 0.28999999
-3.1689999 -12.555 0.186 0.28999999
-3.1340001 -12.584 0.186 0.31
-3.098 -12.606 0.186 0.31
-3.079 -12.616 0.186 0.30000001
-3.0439999 -12.645 0.186 0.30000001
-3.0090001 -12.672 0.186 0.30000001
-2.971 -12.691 0.186 0.30000001
-2.9330001 -12.708 0.186 0.30000001
-2.8959999 -12.731 0.186 0.28999999
-2.859 -12.752 0.186 0.30000001
-2.8399999 -12.762 0.186 0.28
-2.8039999 -12.793 0.186 0.31999999
-2.767 -12.813 0.186 0.30000001
-2.73 -12.838 0.186 0.30000001
-2.6930001 -12.864 0.186 0.30000001
-2.655 -12.886 0.186 0.30000001
-2.618 -12.908 0.186 0.30000001
-2.598 -12.916 0.186 0.28999999
-2.5599999 -12.936 0.186 0.30000001
-2.5239999 -12.967 0.186 0.30000001
-2.4849999 -12.983 0.186 0.28999999
-2.448 -13.014 0.186 0.31999999
-2.408 -13.026 0.186 0.28
-2.369 -13.045 0.186 0.28999999
-2.3510001 -13.061 0.186 0.28999999
-2.3099999 -13.072 0.186 0.28999999
-2.2709999 -13.089 0.186 0.20999999
-2.2379999 -13.141 0.186 0.47999999
-2.223 -13.31 0.186 0.19
-2.1860001 -13.347 0.186 0.18000001
-2.148 -13.377 0.185 0.17
-2.1259999 -13.375 0.185 0.17
-2.0869999 -13.405 0.185 0.17
-2.05 -13.443 0.185 0.18000001
-2.007 -13.448 0.185 0.17
-1.969 -13.479 0.185 0.17
-1.929 -13.503 0.185 0.16
-1.89 -13.533 0.185 0.15000001
-1.83 -13.572 0.185 0.31
-1.786 -13.565 0.185 0.70999998
-1.7460001 -13.589 0.185 0.67000002
-1.7029999 -13.596 0.185 0
-1.6670001 -13.653 0.185 0
-1.625 -13.672 0.185 0
-1.6059999 -13.691 0.185 0
-1.564 -13.712 0.185 0
-1.527 -13.77 0.185 0
-1.482 -13.761 0.185 0
-1.441 -13.779 0.185 0
-1.4 -13.812 0.185 0
-1.359 -13.84 0.185 0.12
-1.299 -13.902 0.185 0.22
-1.253 -13.884 0.185 0.55000001
-1.207 -13.858 0.185 0.68000001
-1.175 -14.003 0.185 0.69999999
-1.1390001 -14.113 0.185 0
-1.0880001 -14.026 0.185 0
-1.067 -14.044 0.185 0
-1.025 -14.075 0.185 0
-0.98299998 -14.104 0.185 0
-0.94 -14.127 0.185 0
-0.89700001 -14.15 0.184 0
-0.85399997 -14.175 0.184 0
-0.81099999 -14.207 0.184 0
-0.79000002 -14.231 0.184 0
-0.745 -14.243 0.184 0
-0.70200002 -14.285 0.184 0
-0.65799999 -14.299 0.184 0
-0.61400002 -14.331 0.184 0
-0.57099998 -14.389 0.184 0
-0.52600002 -14.391 0.184 0.050000001
-0.414 -14.439 0.184 0.51999998
-0.36899999 -14.454 0.184 0.57999998
-0.324 -14.455 0.184 0.72000003
-0.27900001 -14.504 0.184 0.56999999
-0.23199999 -14.389 0.184 0.23
-0.20999999 -14.383 0.184 0.27000001
-0.16500001 -14.41 0.184 0.28
-0.119 -14.43 0.184 0.28999999
-0.074000001 -14.452 0.184 0.28999999
-0.028999999 -14.488 0.184 0.27000001
0.017000001 -14.509 0.184 0.28
0.063000001 -14.53 0.184 0.28
0.086000003 -14.556 0.184 0.28999999
0.132 -14.582 0.184 0.30000001
0.178 -14.603 0.184 0.28
0.22400001 -14.619 0.184 0.28999999
0.271 -14.658 0.184 0.28
0.317 -14.673 0.184 0.27000001
0.36399999 -14.716 0.184 0.28
0.38800001 -14.731 0.184 0.28
0.435 -14.756 0.184 0.27000001
0.48199999 -14.789 0.184 0.28
0.52999997 -14.811 0.184 0.28
0.57800001 -14.843 0.183 0.28
0.62599999 -14.871 0.183 0.28
0.67400002 -14.899 0.183 0.28999999
0.699 -14.93 0.183 0.27000001
0.74699998 -14.954 0.183 0.27000001
0.79500002 -14.979 0.183 0.27000001
0.84500003 -15.013 0.183 0.27000001
0.89399999 -15.044 0.183 0.27000001
0.94199997 -15.061 0.183 0.27000001
0.99299997 -15.1 0.183 0.27000001
1.018 -15.122 0.183 0.27000001
1.068 -15.155 0.183 0.27000001
1.117 -15.175 0.183 0.27000001
1.168 -15.21 0.183 0.28
1.2180001 -15.234 0.183 0.27000001
1.2690001 -15.266 0.183 0.27000001
1.3200001 -15.292 0.183 0.27000001
1.3710001 -15.327 0.183 0.25999999
1.398 -15.357 0.183 0.27000001
1.45 -15.39 0.183 0.27000001
1.502 -15.42 0.182 0.27000001
1.5549999 -15.457 0.182 0.27000001
1.6059999 -15.481 0.182 0.27000001
1.658 -15.506 0.182 0.27000001
1.711 -15.539 0.182 0.27000001
1.739 -15.568 0.182 0.25999999
1.793 -15.602 0.182 0.25999999
1.846 -15.63 0.182 0.27000001
1.899 -15.66 0.182 0.27000001
1.9529999 -15.687 0.182 0.27000001
2.007 -15.725 0.182 0.25999999
2.062 -15.754 0.182 0.25
2.0910001 -15.785 0.182 0.20999999
2.1470001 -15.826 0.182 0.41
2.2 -15.844 0.182 0.25
2.2579999 -15.895 0.182 0.23
2.3099999 -15.902 0.182 0.18000001
2.369 -15.952 0.18099999 0.41999999
2.4219999 -15.966 0.18099999 0.23999999
2.4560001 -16.018999 0.18099999 0.2
2.513 -16.051001 0.18099999 0.40000001
2.569 -16.077 0.18099999 0.23999999
2.6229999 -16.094 0.18099999 0.19
2.6849999 -16.155001 0.18099999 0.40000001
2.7420001 -16.177999 0.18099999 0.23999999
2.799 -16.205 0.18099999 0.19
2.8329999 -16.250999 0.18099999 0.40000001
2.891 -16.280001 0.18099999 0.23999999
2.95 -16.316 0.18099999 0.18000001
3.01 -16.354 0.18099999 0.40000001
3.0680001 -16.379999 0.18099999 0.23999999
3.128 -16.413 0.18099999 0.19
3.1930001 -16.469999 0.18000001 0.40000001
3.223 -16.488001 0.18000001 0.23
3.2850001 -16.527 0.18000001 0.2
3.3469999 -16.568001 0.18000001 0.38
3.405 -16.589001 0.18000001 0.23
3.4690001 -16.632999 0.18000001 0.2
3.5350001 -16.684 0.18000001 0.38
3.596 -16.714001 0.18000001 0.2
3.632 -16.750999 0.18000001 0.38
3.6919999 -16.775 0.18000001 0.2
3.7579999 -16.822001 0.18000001 0.38
3.822 -16.861 0.18000001 0.19
3.885 -16.891001 0.18000001 0.37
3.947 -16.917999 0.18000001 0.22
4.013 -16.958 0.17900001 0.18000001
12.169 -50.84 0.125 0.15000001
12.326 -50.790001 0.125 0.16
4.388 -17.67 0.178 0.36000001
12.85 -50.854 0.125 0.16
2.9489999 -11.451 0.18799999 0.38999999
2.927 -11.291 0.18799999 0.20999999
12.243 -46.313 0.132 0.2
12.449 -45.923 0.133 0.46000001
12.553 -45.737 0.133 0.69999999
12.716 -45.764999 0.133 0
12.781 -45.174999 0.134 0
12.957 -45.251999 0.134 0
13.18 -43.942001 0.13500001 0
13.394 -43.412998 0.13600001 0
13.491 -43.244999 0.13600001 0
12.375 -34.641998 0.149 0.16
12.542 -34.763 0.149 0.41999999
12.6 -34.584999 0.149 0
12.64 -34.356998 0.15000001 0
12.772 -34.382999 0.15000001 0
12.943 -34.508999 0.149 0
17.514 -45.582001 0.131 0.059999999
17.638 -45.478001 0.131 0.14
15.518 -39.650002 0.14 0.30000001
17.837999 -45.147999 0.131 0.23
17.868999 -45.021999 0.131 0
15.891 -39.681 0.14 0
18.08 -44.730999 0.132 0
12.995 -31.882 0.153 0
10.196 -24.263 0.16599999 0.16
13.31 -31.378 0.154 0
13.425 -31.375 0.154 0.12
13.492 -31.261 0.154 0
12.284 -27.983 0.15899999 0
12.386 -27.975 0.15899999 0
12.407 -27.672001 0.15899999 0.13
12.49 -27.624001 0.15899999 0
11.676 -25.402 0.163 0
11.753 -25.358999 0.163 0.059999999
11.809 -25.066 0.164 0.34999999
11.974 -25.313 0.163 0
11.935 -25.028 0.164 0
11.847 -24.645 0.164 0
11.912 -24.582001 0.164 0
11.999 -24.563999 0.164 0
12.07 -24.514 0.164 0
12.136 -24.452999 0.164 0.029999999
12.521 -24.738001 0.164 0.66000003
12.947 -25.381001 0.162 0
11.491 -22.188 0.168 0
12.598 -24.226999 0.164 0
12.68 -24.198 0.164 0
12.756 -24.158001 0.164 0
13.11 -24.271999 0.164 0.34
13.127 -24.122 0.164 0.18000001
15.07 -27.377001 0.15800001 0
15.041 -26.726999 0.15899999 0
15.134 -26.695 0.15899999 0
15.219 -26.649 0.15899999 0
15.301 -26.597 0.15899999 0.029999999
15.714 -27.018999 0.15800001 0
15.731 -26.854 0.15800001 0
15.898 -26.944 0.15800001 0
15.981 -26.892 0.15800001 0
14.512 -24.08 0.163 0
15.431 -25.330999 0.161 0.16
15.509 -25.280001 0.161 0.12
15.362 -24.865999 0.161 0.11
15.423 -24.790001 0.161 0.16
15.511 -24.757 0.161 0.50999999
15.572 -24.683001 0.161 0
15.731 -24.337 0.162 0
15.778 -24.242001 0.162 0
18.246 -27.836 0.155 0
18.330999 -27.775 0.155 0
16.195999 -24.295 0.161 0.28
16.240999 -24.198 0.161 0.19
16.299 -24.120001 0.161 0.31999999
16.368999 -24.059999 0.161 0.11
19.003 -27.737 0.154 0
20.639999 -29.820999 0.15000001 0.12
21.826 -31.322001 0.147 0
21.983 -31.337 0.147 0.1
22.072001 -31.254 0.147 0.13
22 -30.945 0.148 0
22.224001 -31.052999 0.147 0
22.291 -30.941 0.147 0
22.311001 -30.867001 0.147 0
22.392 -30.774 0.148 0
22.09 -29.964001 0.149 0
22.18 -29.888 0.149 0.090000004
22.278 -29.823999 0.149 0.20999999
22.391001 -29.780001 0.149 0
22.627001 -29.995001 0.148 0
22.624001 -29.797001 0.149 0
22.889 -29.948999 0.148 0
22.954 -29.839001 0.148 0
23.027 -29.74 0.148 0
23.072001 -29.606001 0.148 0
22.922001 -29.224001 0.149 0
23.127001 -29.389999 0.149 0
23.243999 -29.349001 0.148 0
23.33 -29.268 0.148 0
23.381001 -29.143 0.149 0.1
22.360001 -27.694 0.15099999 0
22.464001 -27.643999 0.15099999 0
22.440001 -27.438999 0.152 0
22.534 -27.465 0.15099999 0
23.674 -28.669001 0.149 0
23.737 -28.562 0.149 0
23.809 -28.466 0.149 0
23.868999 -28.356001 0.149 0
23.933001 -28.252001 0.149 0
24.000999 -28.152 0.149 0
24.02 -28.086 0.149 0
24.08 -27.976999 0.149 0
24.152 -27.882999 0.149 0
24.225 -27.790001 0.149 0
24.287001 -27.684999 0.149 0
24.354 -27.587 0.149 0
24.419001 -27.486 0.15000001 0
24.445 -27.427999 0.15000001 0
24.503 -27.32 0.15000001 0
24.570999 -27.224001 0.15000001 0
24.634001 -27.121 0.15000001 0
24.691999 -27.014 0.15000001 0
24.761999 -26.92 0.15000001 0
24.823 -26.816999 0.15000001 0
24.851 -26.764 0.15000001 0
24.907 -26.655001 0.15000001 0
24.981001 -26.566 0.15000001 0
25.042 -26.464001 0.15000001 0
25.104 -26.364 0.15000001 0
25.162001 -26.259001 0.15000001 0
25.232 -26.167 0.15000001 0
25.254 -26.107 0.15000001 0
25.315001 -26.006001 0.15000001 0
25.388 -25.917999 0.15000001 0
25.441 -25.809999 0.15000001 0
25.507999 -25.715 0.15000001 0
25.569 -25.615 0.15000001 0
25.625 -25.511 0.15000001 0
25.659 -25.465 0.15000001 0
